-0.490234375,3.828125,0.720703125,3654072539,361
-0.24609375,3.8984375,0.396484375,3654072539,361
-0.736328125,3.826171875,0.486328125,2175436462,2
-0.8671875,3.833984375,0.537109375,2175436462,2
-0.728515625,3.703125,0.921875,2175436462,2
-0.736328125,3.77734375,0.78125,2175436462,2
-0.8671875,3.810546875,0.69140625,2175436462,2
-0.859375,3.6953125,1.015625,2175436462,2
-0.8671875,3.74609375,0.9765625,2175436462,2
-0.689453125,3.599609375,0.35546875,2275378430,4
-0.814453125,3.623046875,0.2578125,2275378430,4
-0.8046875,3.5546875,0.51953125,2275378430,4
-0.814453125,3.609375,0.408203125,2275378430,4
-0.8046875,3.58203125,0.263671875,2325402713,5
-0.697265625,3.63671875,0.380859375,2325402713,5
-0.705078125,3.623046875,0.73046875,2325402713,5
-0.689453125,3.599609375,0.345703125,2325402713,5
-0.814453125,3.603515625,0.4609375,2325402713,5
-0.59375,3.7578125,0.0390625,2375891155,6
-0.6015625,3.755859375,0.568359375,2375891155,6
-0.486328125,3.798828125,0.662109375,2375891155,6
-0.490234375,3.814453125,0.798828125,2375891155,6
-0.48046875,3.767578125,0.603515625,2375891155,6
-0.486328125,3.798828125,0.654296875,2375891155,6
-0.490234375,3.83984375,0.6640625,2375891155,6
-0.619140625,3.830078125,0.830078125,2375891155,6
-0.59375,3.724609375,0.5,2375891155,6
-0.48046875,3.734375,0.78515625,2375891155,6
-0.486328125,3.76953125,0.810546875,2375891155,6
-0.490234375,3.80859375,0.826171875,2375891155,6
-0.619140625,3.822265625,0.8671875,2375891155,6
-0.712890625,3.68359375,0.625,2375891155,6
-0.48046875,3.712890625,0.87890625,2375891155,6
-0.607421875,3.720703125,0.943359375,2375891155,6
-0.61328125,3.7578125,0.962890625,2375891155,6
-0.619140625,3.767578125,1.078125,2375891155,6
-0.6015625,3.740234375,0.6640625,2375891155,6
-0.607421875,3.75390625,0.796875,2375891155,6
-0.490234375,3.783203125,0.9296875,2375891155,6
-0.46484375,0.0,3.697265625,2375891155,6
-0.470703125,0.0,-3.75,2375891155,6
-0.46484375,1.201171875,-3.4921875,2375891155,6
-0.470703125,1.35546875,-3.478515625,2375891155,6
-0.470703125,1.509765625,3.416015625,2375891155,6
-0.587890625,3.708984375,0.24609375,2375891155,6
-0.59375,3.72265625,0.513671875,2375891155,6
-0.6015625,3.712890625,0.80078125,2375891155,6
-0.728515625,3.73046875,0.80859375,2375891155,6
-0.736328125,3.77734375,0.787109375,2375891155,6
