-0.736328125,3.853515625,-0.15234375,232766300,109
-0.744140625,3.888671875,0.265625,232766300,109
-0.751953125,3.92578125,0.294921875,232766300,109
-0.759765625,3.953125,0.439453125,232766300,109
-0.736328125,3.857421875,-0.05859375,232766300,109
-0.619140625,3.896484375,0.4140625,232766300,109
-0.751953125,3.90234375,0.529296875,232766300,109
-0.88671875,3.87109375,0.79296875,232766300,109
-0.744140625,3.8828125,0.330078125,232766300,109
-0.751953125,3.89453125,0.580078125,232766300,109
-0.619140625,3.857421875,0.689453125,232766300,109
-0.626953125,3.8984375,0.689453125,232766300,109
-0.744140625,3.8203125,0.771484375,282686349,110
-0.626953125,3.90234375,0.67578125,282686349,110
-0.759765625,3.9296875,0.61328125,282686349,110
-0.626953125,3.890625,0.740234375,282686349,110
-0.6328125,3.9140625,0.8203125,282686349,110
-0.767578125,3.91015625,0.921875,282686349,110
-0.626953125,3.865234375,0.859375,282686349,110
-0.6328125,3.8828125,0.958984375,282686349,110
-0.744140625,3.845703125,0.638671875,332713526,111
-0.751953125,3.87890625,0.677734375,332713526,111
-0.759765625,3.900390625,0.783203125,332713526,111
-0.751953125,3.916015625,0.4140625,332713526,111
-0.759765625,3.947265625,0.49609375,332713526,111
-0.619140625,3.880859375,0.55078125,332713526,111
-0.626953125,3.927734375,0.50390625,332713526,111
-0.6328125,3.953125,0.615234375,332713526,111
-0.767578125,3.94921875,0.744140625,332713526,111
-0.619140625,3.88671875,0.50390625,382737396,112
-0.751953125,3.88671875,0.62890625,382737396,112
-0.6328125,3.9296875,0.75,382737396,112
-0.744140625,3.859375,0.546875,382737396,112
-0.751953125,3.880859375,0.662109375,382737396,112
-0.88671875,3.87890625,0.75390625,382737396,112
-0.505859375,3.9609375,0.669921875,382737396,112
-0.638671875,3.951171875,0.84765625,382737396,112
-0.619140625,3.916015625,0.1484375,382737396,112
-0.626953125,3.953125,0.234375,382737396,112
-0.759765625,3.966796875,0.3046875,382737396,112
-0.619140625,3.87890625,0.564453125,432697725,113
3.005859375,4.009765625,2.513671875,432697725,113
33.5,5.0390625,42.0,432697725,113
20.83203125,0.0,0.5,432697725,113
-8.0,0.001953125,20.5,432697725,113
10.5,13.0,56.498046875,432697725,113
17.5,10.0,62.498046875,432697725,113
30.0,22.5,-63.501953125,432697725,113
26.5,20.5,-38.001953125,432697725,113
-0.541015625,1.791015625,0.443359375,1221657280,1
-0.552734375,1.8359375,0.42578125,1221657280,1
-0.626953125,1.869140625,0.365234375,1221657280,1
-0.576171875,1.923828125,0.388671875,1221657280,1
-0.326171875,1.916015625,0.7578125,1221657280,1
-0.529296875,1.791015625,0.234375,1221657280,1
-0.48046875,1.8515625,0.1875,1221657280,1
-0.490234375,1.892578125,0.173828125,1221657280,1
-0.564453125,1.919921875,0.126953125,1221657280,1
-0.30078125,1.8984375,0.01953125,1271517578,2
-0.390625,1.97265625,0.556640625,1271517578,2
-0.419921875,1.8671875,0.18359375,1321697000,3
-0.490234375,1.89453125,0.16796875,1321697000,3
-0.412109375,1.826171875,0.19921875,1321697000,3
-0.48046875,1.84375,0.251953125,1321697000,3
-0.490234375,1.876953125,0.30078125,1321697000,3
-0.564453125,1.8828125,0.396484375,1321697000,3
-0.48046875,1.82421875,0.375,1321697000,3
-0.552734375,1.822265625,0.4765625,1321697000,3
-0.419921875,1.876953125,0.00390625,1321697000,3
-0.4296875,1.916015625,0.03125,1321697000,3
-0.626953125,1.892578125,0.2109375,1321697000,3
-0.490234375,1.896484375,0.138671875,1371637670,4
-0.419921875,1.86328125,0.2109375,1371637670,4
-0.490234375,1.880859375,0.2734375,1371637670,4
-0.564453125,1.89453125,0.3359375,1371637670,4
-0.490234375,1.85546875,0.41796875,1371637670,4
-0.361328125,1.888671875,-0.044921875,1371637670,4
-0.4296875,1.916015625,0.017578125,1371637670,4
-0.564453125,1.921875,0.09765625,1371637670,4
-0.470703125,1.78515625,0.3671875,1421643935,5
-0.541015625,1.810546875,0.357421875,1421643935,5
-0.490234375,1.884765625,0.24609375,1421643935,5
-0.564453125,1.904296875,0.27734375,1421643935,5
-0.470703125,1.81640625,0.1484375,1421643935,5
-0.419921875,1.875,0.076171875,1421643935,5
-0.4296875,1.916015625,0.052734375,1421643935,5
-0.564453125,1.91796875,0.146484375,1421643935,5
-0.4609375,1.76953125,0.212890625,1471665011,6
-0.529296875,1.791015625,0.232421875,1471665011,6
-0.541015625,1.82421875,0.271484375,1471665011,6
-0.505859375,1.689453125,0.359375,1471665011,6
-0.517578125,1.73828125,0.314453125,1471665011,6
-0.529296875,1.7734375,0.33984375,1471665011,6
-0.541015625,1.796875,0.41796875,1471665011,6
-0.517578125,1.7109375,0.435546875,1471665011,6
-0.529296875,1.740234375,0.48046875,1471665011,6
-0.529296875,1.8046875,0.06640625,1471665011,6
