-0.572265625,2.5390625,0.275390625,3246795776,471
-0.748046875,2.50390625,0.494140625,3246795776,471
-0.6640625,2.451171875,0.78515625,3246795776,471
-0.67578125,2.501953125,0.755859375,3246795776,471
-0.599609375,2.599609375,0.625,3246795776,471
-0.572265625,2.54296875,0.236328125,3246795776,471
-0.6640625,2.533203125,0.458984375,3246795776,471
-0.759765625,2.4921875,0.708984375,3246795776,471
-0.8046875,2.4140625,0.40625,1761863029,1
-0.818359375,2.453125,0.404296875,1761863029,1
-0.748046875,2.48828125,0.568359375,1761863029,1
-0.67578125,2.44140625,0.935546875,1761863029,1
-0.685546875,2.611328125,0.47265625,1761863029,1
-0.6953125,2.634765625,0.560546875,1761863029,1
-0.705078125,2.65234375,0.658203125,1761863029,1
-0.724609375,2.400390625,0.595703125,1761863029,1
-0.736328125,2.439453125,0.599609375,1761863029,1
-0.6640625,2.46484375,0.744140625,1761863029,1
-0.67578125,2.37109375,1.1015625,1761863029,1
-0.771484375,2.583984375,0.486328125,1761863029,1
-0.6953125,2.587890625,0.748046875,1761863029,1
-0.705078125,2.587890625,0.880859375,1761863029,1
-0.564453125,2.427734375,0.658203125,1761863029,1
-0.736328125,2.416015625,0.689453125,1761863029,1
-0.6640625,2.4296875,0.8515625,1761863029,1
-0.599609375,2.58984375,0.669921875,1761863029,1
-0.6953125,2.521484375,0.947265625,1761863029,1
-0.408203125,2.53125,0.525390625,1761863029,1
-0.498046875,2.5625,0.5,1761863029,1
-0.505859375,2.595703125,0.541015625,1761863029,1
-0.322265625,2.51953125,0.431640625,1761863029,1
-0.408203125,2.5546875,0.396484375,1761863029,1
-0.498046875,2.568359375,0.47265625,1761863029,1
-0.40234375,2.509765625,0.423828125,1761863029,1
-0.408203125,2.552734375,0.412109375,1761863029,1
-0.416015625,2.6015625,0.359375,1761863029,1
-0.40234375,2.4765625,0.58984375,1761863029,1
-0.408203125,2.525390625,0.560546875,1761863029,1
-0.416015625,2.580078125,0.4921875,1761863029,1
-0.1640625,1.763671875,-1.927734375,1761863029,1
-0.166015625,1.6640625,-2.06640625,1761863029,1
-0.083984375,1.66796875,-2.12109375,1761863029,1
-0.572265625,2.5390625,0.279296875,1761863029,1
-0.498046875,2.5703125,0.46875,1761863029,1
-0.505859375,2.595703125,0.54296875,1761863029,1
-1.064453125,2.265625,0.767578125,1761863029,1
-1.1640625,2.2890625,0.69140625,1761863029,1
-1.181640625,2.33203125,0.67578125,1761863029,1
-0.482421875,2.53125,0.037109375,1811564595,2
-0.490234375,2.56640625,0.16796875,1811564595,2
-0.416015625,2.6171875,0.20703125,1811564595,2
-0.421875,2.6640625,0.123046875,1811564595,2
-0.599609375,2.669921875,0.1484375,1811564595,2
-0.564453125,2.50390625,0.23828125,1811564595,2
-0.490234375,2.552734375,0.3125,1811564595,2
-0.416015625,2.576171875,0.513671875,1811564595,2
-0.337890625,2.658203125,0.32421875,1811564595,2
-0.513671875,2.669921875,0.33984375,1811564595,2
-0.40234375,2.484375,0.55078125,1811564595,2
-0.900390625,2.458984375,0.013671875,1811564595,2
-0.9140625,2.48046875,0.28125,1811564595,2
-1.09765625,2.427734375,0.43359375,1811564595,2
-0.513671875,2.654296875,0.451171875,1811564595,2
-0.626953125,2.72265625,0.630859375,1811564595,2
-0.900390625,2.42578125,0.396484375,1811564595,2
-0.9140625,2.42578125,0.591796875,1811564595,2
-1.01171875,2.35546875,0.84375,1811564595,2
-0.64453125,2.490234375,0.154296875,1811564595,2
-0.572265625,2.552734375,0.076171875,1811564595,2
-0.6640625,2.57421875,-0.01171875,1811564595,2
-0.08203125,2.28125,1.28125,1811564595,2
-0.083984375,2.142578125,1.5703125,1811564595,2
-0.16796875,2.587890625,0.748046875,1811564595,2
-0.08203125,1.837890625,1.86328125,1811564595,2
-0.818359375,2.482421875,0.162109375,1861562330,3
-0.830078125,2.462890625,0.5625,1861562330,3
-0.759765625,2.52734375,0.5703125,1861562330,3
-0.599609375,2.65234375,0.33984375,1861562330,3
-0.783203125,2.609375,0.560546875,1861562330,3
-0.482421875,2.484375,0.48828125,1861562330,3
-0.572265625,2.537109375,0.291015625,1861562330,3
-0.830078125,2.5078125,0.302734375,1861562330,3
-0.927734375,2.509765625,0.359375,1861562330,3
-0.783203125,2.50390625,0.923828125,1861562330,3
-0.490234375,2.513671875,0.544921875,1861562330,3
-0.58203125,2.533203125,0.55859375,1861562330,3
-0.67578125,2.548828125,0.580078125,1861562330,3
-0.408203125,2.50390625,0.650390625,1861562330,3
-0.416015625,2.54296875,0.658203125,1861562330,3
-0.505859375,2.568359375,0.662109375,1861562330,3
-0.564453125,2.509765625,0.1484375,1861562330,3
-0.572265625,2.537109375,0.29296875,1861562330,3
-0.498046875,2.57421875,0.435546875,1861562330,3
-0.505859375,2.61328125,0.455078125,1861562330,3
-0.513671875,2.62890625,0.578125,1861562330,3
-0.447265625,2.76171875,0.61328125,1861562330,3
-0.482421875,2.498046875,0.412109375,1911611859,4
-0.490234375,2.505859375,0.578125,1911611859,4
-0.416015625,2.49609375,0.818359375,1911611859,4
-0.505859375,2.482421875,0.931640625,1911611859,4
-0.771484375,2.560546875,0.599609375,1911611859,4
-0.564453125,2.4765625,0.431640625,1911611859,4
-0.490234375,2.537109375,0.41796875,1911611859,4
-0.416015625,2.5703125,0.5390625,1911611859,4
-1.09765625,2.25390625,1.00390625,1911611859,4
-0.94140625,2.48046875,0.685546875,1911611859,4
-0.482421875,2.46484375,0.57421875,1911611859,4
-0.572265625,2.5078125,0.48828125,1911611859,4
-0.328125,2.583984375,0.271484375,1911611859,4
-0.33203125,2.62109375,0.298828125,1911611859,4
-0.421875,2.646484375,0.322265625,1911611859,4
-0.322265625,2.49609375,0.55859375,1911611859,4
-0.328125,2.544921875,0.517578125,1911611859,4
-0.416015625,2.580078125,0.490234375,1911611859,4
-0.421875,2.62109375,0.4921875,1911611859,4
-0.427734375,2.642578125,0.591796875,1911611859,4
-0.564453125,2.509765625,0.16015625,1911611859,4
-0.328125,2.498046875,0.7109375,1911611859,4
-0.33203125,2.548828125,0.6796875,1911611859,4
-0.421875,2.587890625,0.640625,1911611859,4
-0.427734375,2.591796875,0.78125,1911611859,4
-1.1640625,2.232421875,-0.857421875,1911611859,4
-0.564453125,2.486328125,0.380859375,1961537818,5
-0.490234375,2.541015625,0.392578125,1961537818,5
-0.498046875,2.57421875,0.4375,1961537818,5
-0.505859375,2.62109375,0.40234375,1961537818,5
-0.474609375,2.43359375,0.529296875,1961537818,5
-0.564453125,2.470703125,0.46484375,1961537818,5
-0.490234375,2.533203125,0.447265625,1961537818,5
-0.498046875,2.56640625,0.48046875,1961537818,5
-0.609375,2.5546875,0.919921875,1961537818,5
-0.529296875,2.625,0.892578125,1961537818,5
-0.564453125,2.453125,0.556640625,1961537818,5
-0.572265625,2.494140625,0.552734375,1961537818,5
-0.58203125,2.52734375,0.5859375,1961537818,5
-0.328125,2.548828125,0.50390625,1961537818,5
-0.328125,2.505859375,0.681640625,1961537818,5
-0.408203125,2.509765625,0.62109375,1961537818,5
-0.416015625,2.55078125,0.623046875,1961537818,5
-0.498046875,2.509765625,0.720703125,1961537818,5
-0.572265625,2.52734375,-0.375,1961537818,5
-0.513671875,2.69140625,0.076171875,1961537818,5
-0.609375,2.703125,0.25390625,1961537818,5
-0.705078125,2.708984375,0.365234375,1961537818,5
-0.5546875,2.44140625,0.400390625,2011613300,6
-0.564453125,2.4765625,0.43359375,2011613300,6
-0.572265625,2.515625,0.4453125,2011613300,6
-0.58203125,2.541015625,0.525390625,2011613300,6
-0.67578125,2.52734375,0.66796875,2011613300,6
-0.482421875,2.453125,0.626953125,2011613300,6
-0.572265625,2.49609375,0.546875,2011613300,6
-0.58203125,2.53125,0.572265625,2011613300,6
-0.435546875,2.60546875,0.873046875,2011613300,6
-0.353515625,2.689453125,0.78125,2011613300,6
-0.572265625,2.455078125,0.703125,2011613300,6
-0.083984375,1.51953125,-2.1796875,2011613300,6
-0.083984375,1.66796875,-2.068359375,2011613300,6
-0.482421875,2.529296875,0.0859375,2011613300,6
-0.572265625,2.5546875,0.06640625,2011613300,6
-0.58203125,2.59375,0.046875,2011613300,6
-0.5546875,2.453125,0.32421875,2011613300,6
-0.482421875,2.517578125,0.259765625,2011613300,6
-0.572265625,2.54296875,0.24609375,2011613300,6
-0.58203125,2.578125,0.287109375,2011613300,6
-0.58984375,2.599609375,0.423828125,2011613300,6
-0.513671875,2.509765625,0.974609375,2011613300,6
-0.435546875,2.59375,0.90625,2011613300,6
-0.529296875,2.6015625,0.95703125,2011613300,6
-0.447265625,2.6640625,0.947265625,2011613300,6
-1.080078125,2.361328125,0.572265625,2011613300,6
-1.080078125,2.32421875,0.7109375,2011613300,6
