-0.2421875,0.578125,0.458984375,1970221039,85
-0.23046875,0.498046875,-0.607421875,1970221039,85
-0.349609375,0.78515625,-0.0234375,1970221039,85
-0.421875,0.779296875,0.15234375,1970221039,85
0.0,0.830078125,0.443359375,1970221039,85
-0.18359375,0.693359375,0.169921875,1970221039,85
-0.193359375,0.673828125,0.3359375,1970221039,85
-0.23046875,0.0859375,-0.78125,1970221039,85
-0.322265625,0.763671875,-0.224609375,1970221039,85
-0.109375,0.666015625,0.169921875,1970221039,85
-0.18359375,0.689453125,0.177734375,1970221039,85
-0.193359375,0.66015625,0.359375,1970221039,85
-0.23046875,0.205078125,-0.7578125,1970221039,85
-0.322265625,0.7734375,-0.185546875,1970221039,85
-0.39453125,0.80859375,0.01953125,1970221039,85
-0.029296875,0.923828125,0.173828125,1970221039,85
0.0,0.91796875,0.349609375,1970221039,85
-0.447265625,0.89453125,0.216796875,1970221039,85
0.546875,4.341796875,0.0703125,1970221039,85
0.4140625,4.396484375,0.103515625,1970221039,85
0.41796875,4.435546875,0.177734375,1970221039,85
0.05078125,0.779296875,0.244140625,1970221039,85
0.05078125,0.771484375,0.265625,1970221039,85
-0.11328125,0.892578125,-0.037109375,1970221039,85
-0.4296875,0.845703125,0.25,1970221039,85
-0.095703125,0.376953125,-0.9453125,1970221039,85
0.025390625,0.755859375,0.310546875,1970221039,85
-0.11328125,0.892578125,0.01953125,1970221039,85
0.025390625,0.794921875,0.189453125,1970221039,85
0.05078125,0.796875,0.177734375,1970221039,85
-0.11328125,0.87890625,-0.15234375,1970221039,85
-0.4296875,0.875,0.1171875,1970221039,85
-0.064453125,0.345703125,0.9609375,1970221039,85
-0.21875,0.740234375,0.0859375,2019741243,86
-0.205078125,0.7890625,0.068359375,2019741243,86
-0.20703125,0.697265625,0.1171875,2019741243,86
-0.193359375,0.73828125,0.1484375,2019741243,86
-0.205078125,0.783203125,0.1171875,2019741243,86
-0.21484375,0.8203125,-0.138671875,2019741243,86
1.10546875,2.001953125,3.005859375,2019741243,86
48.001953125,0.00390625,33.5,2019741243,86
40.5,-42.81640625,22.955078125,2019741243,86
0.5,0.0,16.0,2019741243,86
53.0,0.0,32.0,2019741243,86
53.5,0.0,3.5,2019741243,86
54.0,0.0,-55.5,2019741243,86
54.5,0.0,15.0,2019741243,86
55.0,0.0,54.5,2019741243,86
55.5,0.0,15.5,2019741243,86
-63.001953125,0.0,16.0,2019741243,86
-41.998046875,0.0,18.0,2019741243,86
-29.00390625,0.0,20.5,2019741243,86
-0.431640625,0.966796875,0.09765625,2258139610,1
-0.44921875,1.001953125,0.123046875,2258139610,1
-0.46484375,1.033203125,0.169921875,2258139610,1
-0.51953125,1.0078125,0.3515625,2258139610,1
-0.23828125,1.1171875,0.548828125,2258139610,1
-0.24609375,1.12109375,0.62890625,2258139610,1
-0.716796875,1.126953125,0.19140625,2258139610,1
-0.6953125,1.13671875,0.3984375,2258139610,1
-0.482421875,0.98046875,0.15234375,2258139610,1
-0.501953125,1.009765625,0.201171875,2258139610,1
-0.3984375,0.986328125,0.0,2258139610,1
-0.4140625,1.0234375,0.0,2258139610,1
-0.46484375,1.046875,0.03515625,2258139610,1
-0.197265625,1.181640625,0.416015625,2258139610,1
-0.24609375,1.1953125,0.47265625,2258139610,1
-0.716796875,1.142578125,-0.056640625,2258139610,1
-0.6953125,1.185546875,0.212890625,2258139610,1
-0.634765625,1.083984375,-0.171875,2258139610,1
-0.6953125,1.103515625,-0.1171875,2258139610,1
-0.25390625,0.83984375,1.02734375,2258139610,1
-0.216796875,0.779296875,-1.130859375,2258139610,1
-0.59375,1.052734375,-0.380859375,2258139610,1
-0.654296875,1.07421875,-0.365234375,2258139610,1
-0.25390625,1.0,0.869140625,2258139610,1
-0.173828125,0.77734375,-1.138671875,2258139610,1
-0.44921875,1.009765625,0.0078125,2308255482,2
-0.501953125,1.02734375,-0.064453125,2308255482,2
-0.3984375,0.982421875,0.091796875,2308255482,2
-0.44921875,1.005859375,0.091796875,2308255482,2
-0.46484375,1.041015625,0.107421875,2308255482,2
-0.51953125,0.693359375,0.810546875,2308255482,2
-0.23046875,0.8984375,0.802734375,2308255482,2
-0.27734375,1.087890625,0.587890625,2308255482,2
-0.328125,1.158203125,0.515625,2308255482,2
0.0,4.3515625,0.478515625,2308255482,2
-0.3984375,0.9765625,0.1328125,2308255482,2
-0.44921875,0.99609375,0.1640625,2308255482,2
-0.501953125,1.015625,0.169921875,2308255482,2
-0.4140625,1.013671875,-0.14453125,2308255482,2
-0.4296875,1.0546875,-0.119140625,2308255482,2
-0.3984375,0.984375,-0.0390625,2308255482,2
-0.4140625,1.0234375,-0.046875,2308255482,2
-0.46484375,1.046875,-0.013671875,2308255482,2
-0.4453125,1.03125,0.384765625,2308255482,2
-0.61328125,1.021484375,-0.296875,2308255482,2
-0.23828125,1.15625,0.462890625,2308255482,2
-0.287109375,1.21484375,0.39453125,2308255482,2
0.0,4.376953125,-0.06640625,2308255482,2
-0.111328125,1.177734375,0.099609375,2308255482,2
-0.65234375,1.02734375,-0.158203125,2308255482,2
-0.712890625,1.029296875,-0.1953125,2308255482,2
0.66796875,0.974609375,0.109375,2308255482,2
-0.23046875,1.0625,0.568359375,2308255482,2
-0.634765625,1.0546875,-0.302734375,2308255482,2
-0.654296875,1.09375,-0.294921875,2308255482,2
-0.3984375,0.978515625,0.119140625,2358074271,3
-0.44921875,0.99609375,0.1640625,2358074271,3
-0.21484375,1.123046875,0.05859375,2358074271,3
-0.259765625,1.12890625,0.25390625,2358074271,3
-0.306640625,1.05078125,0.552734375,2358074271,3
-0.31640625,1.123046875,0.498046875,2358074271,3
-0.328125,1.189453125,0.439453125,2358074271,3
-0.421875,1.189453125,0.478515625,2358074271,3
-0.3984375,0.986328125,0.017578125,2358074271,3
-0.4140625,1.0234375,0.021484375,2358074271,3
-0.25,1.1171875,-0.01171875,2358074271,3
-0.22265625,1.154296875,0.154296875,2358074271,3
-0.27734375,1.189453125,0.341796875,2358074271,3
-0.287109375,1.25390625,0.2421875,2358074271,3
-0.501953125,0.93359375,0.435546875,2358074271,3
-0.46484375,1.009765625,0.271484375,2358074271,3
-0.517578125,0.974609375,0.029296875,2408215204,4
-0.501953125,1.0234375,0.123046875,2408215204,4
-0.22265625,0.951171875,0.673828125,2408215204,4
-0.3828125,1.072265625,0.45703125,2408215204,4
-0.396484375,1.111328125,0.46484375,2408215204,4
-0.44921875,1.130859375,0.482421875,2408215204,4
-0.505859375,1.1484375,0.498046875,2408215204,4
-0.609375,1.125,0.546875,2408215204,4
-0.13671875,4.34375,0.517578125,2408215204,4
-0.435546875,1.05078125,0.55859375,2408215204,4
-0.44921875,1.099609375,0.55078125,2408215204,4
-0.357421875,1.19140625,0.251953125,2408215204,4
-0.3671875,1.234375,0.234375,2408215204,4
-0.537109375,1.009765625,-0.068359375,2408215204,4
-0.185546875,1.068359375,0.482421875,2408215204,4
-0.345703125,1.1328125,0.322265625,2408215204,4
-0.357421875,1.169921875,0.33203125,2408215204,4
-0.3671875,1.2109375,0.33203125,2408215204,4
-0.46484375,1.216796875,0.353515625,2408215204,4
-0.564453125,1.203125,0.41015625,2408215204,4
0.0,4.375,0.15625,2408215204,4
-0.171875,0.83984375,0.697265625,2408215204,4
-0.142578125,0.85546875,0.748046875,2408215204,4
-0.556640625,1.041015625,0.115234375,2408215204,4
-0.142578125,1.00390625,0.533203125,2408215204,4
-0.59375,1.02734375,-0.0390625,2408215204,4
-0.306640625,1.064453125,0.529296875,2458301297,5
-0.357421875,1.14453125,0.412109375,2458301297,5
-0.287109375,1.240234375,0.306640625,2458301297,5
-0.44921875,1.00390625,0.09765625,2458301297,5
-0.501953125,1.01953125,0.1484375,2458301297,5
-0.4453125,1.052734375,0.3203125,2458301297,5
-0.3828125,1.08203125,0.43359375,2458301297,5
-0.27734375,1.1875,0.345703125,2458301297,5
-0.24609375,1.220703125,0.404296875,2458301297,5
-0.67578125,1.076171875,0.455078125,2458301297,5
-0.564453125,1.15625,0.52734375,2458301297,5
-0.626953125,1.181640625,0.509765625,2458301297,5
-0.345703125,1.1484375,0.263671875,2458301297,5
-0.27734375,1.224609375,0.17578125,2458301297,5
-0.609375,1.2265625,0.240234375,2458301297,5
-0.3984375,0.984375,-0.068359375,2458301297,5
-0.44921875,1.0078125,-0.064453125,2458301297,5
-0.501953125,1.029296875,0.005859375,2458301297,5
-0.408203125,1.09375,0.208984375,2458301297,5
-0.345703125,1.130859375,0.330078125,2458301297,5
-0.27734375,1.21484375,0.236328125,2458301297,5
-0.205078125,1.27734375,0.205078125,2458301297,5
-0.6328125,1.150390625,0.314453125,2458301297,5
-0.609375,1.20703125,0.328125,2458301297,5
-0.58203125,1.271484375,0.30859375,2458301297,5
-0.736328125,0.384765625,1.01171875,2458301297,5
-0.6953125,0.982421875,0.515625,2458301297,5
-0.16796875,0.84765625,-1.037109375,2458301297,5
-0.634765625,0.8046875,0.748046875,2458301297,5
-0.654296875,0.962890625,0.599609375,2458301297,5
-0.16796875,0.53125,-1.228515625,2458301297,5
-0.3828125,1.0859375,0.42578125,2508432442,6
-0.31640625,1.15625,0.4140625,2508432442,6
-0.287109375,1.15234375,0.552734375,2508432442,6
-0.67578125,1.09765625,0.404296875,2508432442,6
-0.65234375,1.142578125,0.453125,2508432442,6
-0.431640625,0.962890625,0.138671875,2508432442,6
-0.44921875,1.001953125,0.119140625,2508432442,6
-0.501953125,1.02734375,0.0625,2508432442,6
-0.51953125,0.91015625,0.55859375,2508432442,6
-0.421875,1.076171875,0.4140625,2508432442,6
-0.31640625,1.134765625,0.466796875,2508432442,6
-0.24609375,1.126953125,0.619140625,2508432442,6
-0.6328125,1.138671875,0.35546875,2508432442,6
-0.65234375,1.123046875,0.498046875,2508432442,6
-0.626953125,1.171875,0.533203125,2508432442,6
-0.357421875,1.09765625,0.525390625,2508432442,6
-0.44921875,1.005859375,-0.080078125,2508432442,6
-0.3828125,1.14453125,0.22265625,2508432442,6
-0.31640625,1.20703125,0.220703125,2508432442,6
-0.24609375,1.236328125,0.3515625,2508432442,6
-0.6328125,1.185546875,0.12890625,2508432442,6
-0.609375,1.224609375,0.255859375,2508432442,6
-0.3984375,0.986328125,0.00390625,2508432442,6
-0.44921875,1.0078125,-0.03125,2508432442,6
-0.46484375,1.0390625,-0.119140625,2508432442,6
-0.4453125,1.015625,0.423828125,2508432442,6
-0.421875,1.11328125,0.296875,2508432442,6
-0.31640625,1.185546875,0.3203125,2508432442,6
-0.24609375,1.205078125,0.44921875,2508432442,6
-0.6328125,1.171875,0.224609375,2508432442,6
-0.609375,1.201171875,0.34765625,2508432442,6
-0.626953125,1.224609375,0.3984375,2508432442,6
-0.736328125,1.041015625,-0.294921875,2508432442,6
-0.16796875,1.015625,-0.875,2508432442,6
-0.16796875,0.37109375,-1.287109375,2508432442,6
-0.16796875,0.3671875,-1.2890625,2508432442,6
-0.16796875,0.326171875,-1.298828125,2508432442,6
0.39453125,0.80078125,-0.115234375,760181425,2
0.3828125,0.857421875,-0.05859375,760181425,2
0.3984375,0.896484375,-0.044921875,760181425,2
0.095703125,0.81640625,0.609375,760181425,2
0.3984375,0.490234375,0.85546875,760181425,2
0.310546875,1.009765625,0.32421875,760181425,2
0.287109375,1.064453125,0.310546875,760181425,2
0.333984375,1.091796875,0.3203125,760181425,2
0.345703125,1.1328125,0.322265625,760181425,2
0.849609375,5.373046875,-0.076171875,760181425,2
-0.685546875,2.837890625,4.638671875,760181425,2
-0.517578125,3.576171875,4.17578125,760181425,2
0.365234375,0.8203125,-0.0625,760181425,2
0.353515625,0.87109375,-0.056640625,760181425,2
0.3671875,0.908203125,-0.05859375,760181425,2
0.3515625,0.9453125,-0.16796875,760181425,2
0.3984375,0.982421875,-0.078125,760181425,2
0.4140625,1.021484375,-0.08203125,760181425,2
0.4296875,1.056640625,0.11328125,760181425,2
0.408203125,1.09765625,0.189453125,760181425,2
0.3828125,1.1328125,0.279296875,760181425,2
-0.849609375,1.681640625,5.103515625,760181425,2
-0.685546875,2.2265625,4.962890625,760181425,2
-0.517578125,2.865234375,4.693359375,760181425,2
0.349609375,0.783203125,-0.060546875,760181425,2
0.365234375,0.8203125,-0.05859375,760181425,2
0.353515625,0.869140625,-0.064453125,760181425,2
0.3671875,0.90625,-0.08203125,760181425,2
0.3515625,0.88671875,-0.369140625,760181425,2
0.3984375,0.9765625,0.140625,760181425,2
0.44921875,0.998046875,0.154296875,760181425,2
0.4296875,1.0390625,0.21875,760181425,2
0.408203125,1.0703125,0.30859375,760181425,2
0.349609375,0.783203125,-0.046875,760181425,2
0.365234375,0.8203125,-0.056640625,760181425,2
0.3828125,0.85546875,-0.078125,760181425,2
0.3671875,0.900390625,-0.138671875,760181425,2
0.3828125,0.9140625,-0.25390625,760181425,2
0.365234375,0.90625,-0.41796875,760181425,2
0.482421875,0.9375,0.328125,760181425,2
0.537109375,0.970703125,0.28515625,760181425,2
0.349609375,0.78515625,-0.00390625,760181425,2
0.337890625,0.833984375,-0.025390625,760181425,2
0.353515625,0.87109375,-0.044921875,760181425,2
0.275390625,0.94140625,-0.01171875,760181425,2
0.576171875,0.845703125,0.001953125,760181425,2
0.564453125,0.8203125,0.375,760181425,2
0.552734375,0.861328125,0.41796875,760181425,2
0.572265625,0.935546875,0.330078125,760181425,2
0.51953125,0.978515625,0.42578125,760181425,2
0.4609375,0.98828125,0.5625,760181425,2
0.505859375,0.744140625,0.00390625,760181425,2
0.5,0.796875,0.021484375,760181425,2
0.521484375,0.83203125,-0.005859375,760181425,2
0.51171875,0.884765625,-0.001953125,760181425,2
0.53125,0.91796875,0.076171875,760181425,2
0.552734375,0.71484375,0.634765625,760181425,2
0.537109375,0.900390625,0.462890625,760181425,2
0.556640625,0.984375,0.359375,760181425,2
0.45703125,0.728515625,0.00390625,760181425,2
0.505859375,0.744140625,-0.025390625,760181425,2
0.529296875,0.77734375,-0.021484375,760181425,2
0.490234375,0.849609375,0.044921875,760181425,2
0.51171875,0.884765625,0.052734375,760181425,2
0.421875,0.7890625,-0.095703125,810171946,3
0.412109375,0.83984375,-0.109375,810171946,3
0.4296875,0.875,-0.12109375,810171946,3
0.447265625,0.90625,-0.15234375,810171946,3
0.46484375,0.93359375,-0.208984375,810171946,3
0.517578125,0.943359375,-0.248046875,810171946,3
0.357421875,1.021484375,0.375,810171946,3
0.408203125,1.099609375,0.173828125,810171946,3
0.421875,1.1328125,0.216796875,810171946,3
0.435546875,1.154296875,0.291015625,810171946,3
0.39453125,0.80859375,-0.02734375,810171946,3
0.412109375,0.845703125,-0.029296875,810171946,3
0.4296875,0.8828125,-0.037109375,810171946,3
0.416015625,0.931640625,-0.0703125,810171946,3
0.46484375,0.947265625,-0.134765625,810171946,3
0.482421875,0.96484375,-0.234375,810171946,3
0.357421875,0.984375,0.462890625,810171946,3
0.408203125,1.083984375,0.25390625,810171946,3
0.421875,1.115234375,0.2890625,810171946,3
0.396484375,1.140625,0.388671875,810171946,3
0.365234375,0.81640625,0.09375,810171946,3
0.412109375,0.841796875,0.076171875,810171946,3
0.4296875,0.87890625,0.07421875,810171946,3
0.447265625,0.91796875,0.06640625,810171946,3
0.46484375,0.95703125,0.025390625,810171946,3
0.517578125,0.97265625,-0.0625,810171946,3
0.39453125,1.0234375,0.330078125,810171946,3
0.408203125,1.07421875,0.29296875,810171946,3
0.421875,1.095703125,0.357421875,810171946,3
0.357421875,1.080078125,0.560546875,810171946,3
0.44921875,0.75390625,0.197265625,810171946,3
0.529296875,0.771484375,0.095703125,810171946,3
0.521484375,0.828125,0.078125,810171946,3
0.54296875,0.86328125,0.0625,810171946,3
0.59765625,0.875,0.078125,810171946,3
0.62109375,0.90234375,0.146484375,810171946,3
0.64453125,0.912109375,0.251953125,810171946,3
0.630859375,0.958984375,0.302734375,810171946,3
0.728515625,0.958984375,0.236328125,810171946,3
0.79296875,0.98046875,0.142578125,810171946,3
0.529296875,0.748046875,0.2109375,810171946,3
0.552734375,0.798828125,0.14453125,810171946,3
0.607421875,0.8203125,0.05859375,810171946,3
0.630859375,0.84765625,0.123046875,810171946,3
0.65625,0.8671875,0.193359375,810171946,3
0.64453125,0.908203125,0.271484375,810171946,3
0.705078125,0.916015625,0.26953125,810171946,3
0.728515625,0.96484375,0.2109375,810171946,3
0.75390625,1.005859375,0.173828125,810171946,3
0.572265625,1.177734375,0.021484375,810171946,3
0.521484375,0.818359375,0.150390625,810171946,3
0.607421875,0.802734375,0.177734375,810171946,3
0.630859375,0.830078125,0.205078125,810171946,3
0.65625,0.841796875,0.28515625,810171946,3
0.6796875,0.84765625,0.361328125,810171946,3
0.705078125,0.884765625,0.35546875,810171946,3
0.728515625,0.931640625,0.328125,810171946,3
0.673828125,1.04296875,0.259765625,810171946,3
0.83203125,0.900390625,0.32421875,810171946,3
0.3984375,0.62109375,-0.646484375,810171946,3
0.416015625,0.751953125,-0.5546875,810171946,3
0.3984375,0.837890625,-0.51953125,810171946,3
0.44140625,0.8125,-0.173828125,810171946,3
0.521484375,0.82421875,-0.109375,810171946,3
0.55859375,0.748046875,0.109375,859770919,4
0.337890625,0.7265625,-0.568359375,859770919,4
0.416015625,0.826171875,-0.4375,859770919,4
0.431640625,0.884765625,-0.40234375,859770919,4
0.689453125,0.859375,-0.06640625,859770919,4
0.64453125,0.943359375,0.07421875,859770919,4
0.37109375,1.126953125,0.025390625,859770919,4
0.689453125,0.97265625,0.2890625,859770919,4
0.83203125,0.951171875,0.103515625,859770919,4
0.412109375,0.845703125,0.025390625,859770919,4
0.4296875,0.876953125,-0.10546875,859770919,4
0.416015625,0.900390625,-0.24609375,859770919,4
0.3984375,0.8671875,-0.46875,859770919,4
0.37890625,0.970703125,-0.36328125,859770919,4
0.64453125,0.701171875,0.634765625,859770919,4
0.408203125,1.09375,0.212890625,859770919,4
0.576171875,1.015625,0.37890625,859770919,4
0.83203125,0.94921875,0.119140625,859770919,4
0.53125,1.072265625,0.53125,859770919,4
0.4296875,0.87109375,-0.138671875,859770919,4
0.416015625,0.90234375,-0.244140625,859770919,4
0.3984375,0.9140625,-0.37109375,859770919,4
0.4140625,0.98046875,-0.296875,859770919,4
0.64453125,0.904296875,0.27734375,859770919,4
0.37109375,1.09375,0.271484375,859770919,4
0.3828125,1.140625,0.2421875,859770919,4
0.333984375,1.0546875,0.42578125,859770919,4
0.447265625,0.900390625,-0.18359375,859770919,4
0.529296875,0.76953125,-0.115234375,859770919,4
0.490234375,0.826171875,-0.197265625,859770919,4
0.478515625,0.87890625,-0.2109375,859770919,4
0.3984375,0.984375,-0.048828125,859770919,4
0.724609375,0.802734375,-0.224609375,859770919,4
0.716796875,0.8515625,-0.271484375,859770919,4
0.5,0.794921875,-0.0546875,859770919,4
0.490234375,0.841796875,-0.119140625,859770919,4
0.478515625,0.89453125,-0.1328125,859770919,4
0.3984375,0.986328125,-0.015625,859770919,4
0.724609375,0.822265625,-0.138671875,859770919,4
0.716796875,0.873046875,-0.1953125,859770919,4
0.408203125,1.11328125,0.052734375,859770919,4
0.4609375,1.13671875,-0.0078125,859770919,4
0.0,0.939453125,-0.060546875,859770919,4
0.0,0.853515625,0.486328125,859770919,4
-0.07421875,0.67578125,-0.97265625,859770919,4
-0.115234375,0.763671875,-0.953125,859770919,4
-0.23828125,1.19921875,-0.337890625,859770919,4
0.05859375,0.857421875,-0.380859375,859770919,4
0.322265625,1.083984375,0.18359375,859770919,4
-0.07421875,0.7265625,-0.93359375,859770919,4
0.65234375,0.94921875,0.423828125,859770919,4
-0.197265625,1.185546875,-0.404296875,859770919,4
-0.107421875,0.904296875,-0.6953125,859770919,4
-0.07421875,0.85546875,-0.818359375,859770919,4
-0.076171875,0.921875,-0.8046875,859770919,4
-0.111328125,0.986328125,-0.650390625,859770919,4
0.763671875,0.708984375,-0.20703125,859770919,4
0.345703125,0.892578125,0.552734375,859770919,4
0.287109375,0.90234375,0.64453125,859770919,4
0.763671875,0.7109375,0.203125,859770919,4
0.345703125,0.880859375,0.568359375,859770919,4
0.322265625,0.88671875,0.6484375,859770919,4
0.5,0.79296875,0.0859375,910003321,5
0.521484375,0.830078125,0.052734375,910003321,5
0.576171875,0.84375,0.041015625,910003321,5
0.630859375,0.8515625,0.0859375,910003321,5
0.689453125,0.8515625,0.12890625,910003321,5
0.64453125,0.93359375,0.162109375,910003321,5
0.4453125,1.072265625,0.2421875,910003321,5
0.537109375,1.0546875,0.326171875,910003321,5
0.712890625,1.015625,0.263671875,910003321,5
0.77734375,1.00390625,0.318359375,910003321,5
0.263671875,0.8828125,0.193359375,910003321,5
0.306640625,0.919921875,0.1484375,910003321,5
0.478515625,0.8515625,-0.30078125,910003321,5
0.46484375,0.892578125,-0.341796875,910003321,5
0.44921875,0.9296875,-0.39453125,910003321,5
0.287109375,1.10546875,-0.078125,910003321,5
0.408203125,1.091796875,0.224609375,910003321,5
0.421875,1.123046875,0.255859375,910003321,5
0.435546875,1.166015625,0.23828125,910003321,5
0.306640625,0.912109375,0.197265625,910003321,5
0.416015625,0.927734375,-0.10546875,910003321,5
0.46484375,0.90234375,-0.31640625,910003321,5
0.44921875,0.955078125,-0.328125,910003321,5
0.322265625,1.09375,0.11328125,910003321,5
0.408203125,1.068359375,0.3125,910003321,5
0.421875,1.10546875,0.328125,910003321,5
0.396484375,1.169921875,0.28515625,910003321,5
0.3671875,1.251953125,0.1015625,910003321,5
0.431640625,0.970703125,-0.029296875,910003321,5
0.37109375,1.0078125,0.501953125,910003321,5
0.3828125,1.0859375,0.423828125,910003321,5
0.564453125,0.82421875,-0.365234375,910003321,5
0.55859375,0.755859375,0.029296875,910003321,5
0.61328125,0.765625,0.03515625,910003321,5
0.607421875,0.8203125,0.05859375,910003321,5
0.630859375,0.85546875,0.03125,910003321,5
0.689453125,0.861328125,-0.0078125,910003321,5
0.716796875,0.890625,-0.07421875,910003321,5
0.779296875,0.87109375,0.20703125,910003321,5
0.8046875,0.90625,0.1875,910003321,5
0.79296875,0.974609375,0.177734375,910003321,5
0.859375,0.974609375,0.1640625,910003321,5
0.84375,1.044921875,0.1328125,910003321,5
0.529296875,0.76953125,0.115234375,910003321,5
0.58203125,0.783203125,0.107421875,910003321,5
0.607421875,0.81640625,0.1015625,910003321,5
0.630859375,0.853515625,0.064453125,910003321,5
0.65625,0.888671875,0.033203125,910003321,5
0.6796875,0.921875,-0.0234375,910003321,5
0.7421875,0.880859375,0.28515625,910003321,5
0.767578125,0.921875,0.259765625,910003321,5
0.79296875,0.955078125,0.259765625,910003321,5
0.818359375,0.990234375,0.251953125,910003321,5
0.84375,1.02734375,0.23828125,910003321,5
0.310546875,0.654296875,-0.833984375,910003321,5
0.287109375,0.955078125,-0.564453125,910003321,5
0.095703125,0.810546875,0.6171875,910003321,5
-0.0390625,0.83203125,-0.95703125,910003321,5
-0.080078125,0.89453125,-0.896484375,910003321,5
-0.08203125,0.93359375,-0.9140625,910003321,5
0.44140625,0.830078125,-0.03125,959918614,6
0.4609375,0.86328125,-0.076171875,959918614,6
0.478515625,0.8984375,-0.099609375,959918614,6
0.46484375,0.94921875,-0.111328125,959918614,6
0.44921875,1.0078125,-0.04296875,959918614,6
0.4296875,1.056640625,0.109375,959918614,6
0.408203125,1.095703125,0.203125,959918614,6
0.4609375,1.119140625,0.201171875,959918614,6
0.474609375,1.16015625,0.189453125,959918614,6
0.490234375,1.205078125,0.134765625,959918614,6
0.44140625,0.830078125,0.021484375,959918614,6
0.4609375,0.8671875,-0.015625,959918614,6
0.447265625,0.91796875,-0.056640625,959918614,6
0.46484375,0.955078125,-0.044921875,959918614,6
0.44921875,1.0078125,0.037109375,959918614,6
0.4296875,1.037109375,0.224609375,959918614,6
0.408203125,1.0703125,0.310546875,959918614,6
0.4609375,1.08984375,0.330078125,959918614,6
0.515625,1.107421875,0.337890625,959918614,6
0.53125,1.15625,0.3046875,959918614,6
0.44140625,0.826171875,0.08984375,959918614,6
0.4609375,0.865234375,0.048828125,959918614,6
0.447265625,0.919921875,0.01171875,959918614,6
0.431640625,0.97265625,0.01171875,959918614,6
0.44921875,1.00390625,0.099609375,959918614,6
0.4296875,1.025390625,0.275390625,959918614,6
0.4453125,1.041015625,0.3515625,959918614,6
0.4609375,1.064453125,0.404296875,959918614,6
0.474609375,1.09765625,0.421875,959918614,6
0.490234375,1.150390625,0.38671875,959918614,6
0.447265625,0.916015625,0.08984375,959918614,6
0.46484375,0.94921875,0.115234375,959918614,6
0.521484375,0.8046875,-0.212890625,959918614,6
0.51171875,0.85546875,-0.23046875,959918614,6
0.498046875,0.904296875,-0.25390625,959918614,6
0.482421875,0.984375,-0.125,959918614,6
0.501953125,1.01953125,0.150390625,959918614,6
0.482421875,1.078125,0.12109375,959918614,6
0.537109375,1.09375,0.146484375,959918614,6
0.59375,1.10546875,0.17578125,959918614,6
0.470703125,0.80859375,-0.103515625,959918614,6
0.521484375,0.822265625,-0.125,959918614,6
0.51171875,0.873046875,-0.154296875,959918614,6
0.498046875,0.923828125,-0.169921875,959918614,6
0.482421875,0.9921875,-0.048828125,959918614,6
0.46484375,1.01953125,0.234375,959918614,6
0.482421875,1.06640625,0.193359375,959918614,6
0.576171875,1.0625,0.21484375,959918614,6
0.5546875,1.11328125,0.248046875,959918614,6
0.61328125,1.1328125,0.228515625,959918614,6
0.0,0.703125,-1.0546875,959918614,6
0.0,0.724609375,-1.08984375,959918614,6
0.0,0.837890625,-0.951171875,959918614,6
0.0,0.841796875,-1.001953125,959918614,6
0.0,0.939453125,-0.912109375,959918614,6
0.072265625,0.244140625,1.1171875,959918614,6
0.498046875,1.099609375,0.216796875,959918614,6
0.0,4.357421875,0.421875,1888792316,216
0.0,4.392578125,0.466796875,1888792316,216
0.0,4.318359375,0.39453125,1888792316,216
0.0,4.369140625,0.265625,1888792316,216
0.0,4.4140625,0.19921875,1888792316,216
0.0,4.376953125,0.0859375,1938707035,217
0.0,4.326171875,0.287109375,1989218266,218
0.0,4.369140625,0.271484375,1989218266,218
0.0,4.412109375,0.236328125,1989218266,218
-0.138671875,4.45703125,0.068359375,1989218266,218
0.0,4.33203125,0.181640625,1989218266,218
0.0,4.373046875,0.166015625,1989218266,218
-0.138671875,4.4140625,0.09375,1989218266,218
-0.138671875,4.455078125,-0.076171875,1989218266,218
0.0,4.3203125,0.365234375,1989218266,218
0.0,4.361328125,0.36328125,1989218266,218
0.0,4.408203125,0.3046875,1989218266,218
-0.279296875,4.447265625,0.171875,1989218266,218
0.0,4.30078125,0.546875,1989218266,218
0.0,4.341796875,0.552734375,1989218266,218
0.0,4.38671875,0.521484375,1989218266,218
0.134765625,4.333984375,0.0234375,1989218266,218
0.0,4.376953125,0.025390625,1989218266,218
0.0,4.41796875,-0.015625,1989218266,218
0.0,4.330078125,0.23828125,1989218266,218
0.0,4.37109375,0.2421875,1989218266,218
-0.138671875,4.412109375,0.16796875,1989218266,218
-0.138671875,4.45703125,-0.015625,1989218266,218
0.0,4.2734375,0.4296875,1989218266,218
0.0,4.31640625,0.408203125,1989218266,218
0.0,4.35546875,0.439453125,1989218266,218
-0.138671875,4.400390625,0.373046875,1989218266,218
-0.279296875,4.4453125,0.203125,1989218266,218
0.0,4.3359375,0.033203125,2039082942,219
0.0,4.376953125,0.05078125,2039082942,219
-0.138671875,4.416015625,-0.005859375,2039082942,219
0.28125,8.9375,1.009765625,2039082942,219
0.0,4.32421875,0.330078125,2039082942,219
0.0,4.365234375,0.326171875,2039082942,219
-0.138671875,4.40625,0.279296875,2039082942,219
-0.279296875,4.44921875,0.072265625,2039082942,219
0.0,4.296875,0.58203125,2039082942,219
3.005859375,4.009765625,2.513671875,2039082942,219
33.5,5.0390625,1.0,2039082942,219
0.056640625,0.0,0.0,2039082942,219
16.0,1.9921875,-43.341796875,2039082942,219
24.0,0.0,43.0,2039082942,219
1.0625,2.001953125,3.005859375,2039082942,219
32.001953125,0.0,33.5,2039082942,219
-3.0,29.685546875,0.0625,2039082942,219
6.0,0.0,16.0,2039082942,219
3.5,0.0,24.0,2039082942,219
31.5,6.001953125,1.0625,2039082942,219
-0.087890625,0.64453125,-0.244140625,3502952380,1
-0.091796875,0.6875,-0.248046875,3502952380,1
-0.169921875,0.353515625,-0.671875,3502952380,1
-0.1796875,0.58984375,-0.537109375,3502952380,1
-0.16015625,0.74609375,-0.39453125,3502952380,1
-0.337890625,0.68359375,-0.48046875,3502952380,1
-0.078125,2.419921875,0.599609375,3502952380,1
-0.158203125,2.482421875,0.494140625,3502952380,1
-0.16015625,2.53515625,0.4375,3502952380,1
-0.1640625,2.56640625,0.490234375,3502952380,1
-0.166015625,2.58984375,0.576171875,3502952380,1
-0.25390625,2.57421875,0.775390625,3502952380,1
0.171875,2.6875,0.513671875,3502952380,1
-0.173828125,2.767578125,0.216796875,3502952380,1
-3.1953125,3.90625,0.818359375,3502952380,1
-3.220703125,3.927734375,0.876953125,3502952380,1
-3.41015625,3.826171875,0.853515625,3502952380,1
-3.349609375,3.419921875,2.408203125,3502952380,1
-3.375,3.439453125,2.435546875,3502952380,1
-4.072265625,5.986328125,-0.076171875,3502952380,1
-4.095703125,6.01953125,0.0546875,3502952380,1
-4.119140625,6.044921875,0.31640625,3502952380,1
-0.091796875,0.701171875,-0.205078125,3502952380,1
-0.291015625,0.1796875,-0.697265625,3502952380,1
-0.28125,0.455078125,-0.619140625,3502952380,1
-0.16015625,0.76953125,-0.34375,3502952380,1
-0.31640625,2.40234375,0.748046875,3502952380,1
-0.2421875,2.466796875,0.70703125,3502952380,1
-0.24609375,2.4921875,0.76171875,3502952380,1
-0.33203125,2.45703125,0.962890625,3502952380,1
-0.25390625,2.46875,1.060546875,3502952380,1
0.0,2.693359375,0.51171875,3502952380,1
-0.26171875,2.73828125,0.41796875,3502952380,1
0.123046875,3.873046875,0.642578125,3502952380,1
0.123046875,3.91796875,0.609375,3502952380,1
-0.322265625,2.400390625,0.880859375,3502952380,1
-0.24609375,2.4453125,0.904296875,3502952380,1
-0.33203125,2.40234375,1.091796875,3502952380,1
-0.25390625,2.43359375,1.140625,3502952380,1
0.0,2.646484375,0.712890625,3502952380,1
-0.328125,2.3203125,1.166015625,3502952380,1
-0.33203125,2.267578125,1.345703125,3502952380,1
-0.18359375,0.705078125,-0.099609375,3502952380,1
-0.21875,0.732421875,-0.138671875,3502952380,1
-0.28125,0.748046875,-0.17578125,3502952380,1
-0.349609375,0.771484375,-0.146484375,3502952380,1
-0.1953125,0.630859375,-0.21875,3502952380,1
-0.23046875,0.6796875,-0.162109375,3502952380,1
-0.2421875,0.724609375,-0.140625,3502952380,1
-0.28125,0.759765625,-0.119140625,3502952380,1
-0.322265625,0.791015625,-0.087890625,3502952380,1
-0.365234375,0.814453125,0.115234375,3502952380,1
-0.3828125,0.83984375,0.185546875,3502952380,1
-0.1953125,0.646484375,-0.162109375,3502952380,1
-0.20703125,0.6953125,-0.130859375,3502952380,1
-0.2421875,0.73046875,-0.10546875,3502952380,1
-0.28125,0.763671875,-0.087890625,3502952380,1
-0.322265625,0.796875,0.013671875,3502952380,1
-0.337890625,0.80859375,0.203125,3502952380,1
-0.353515625,0.841796875,0.23046875,3502952380,1
-0.3984375,0.865234375,0.23828125,3502952380,1
-0.1953125,0.66015625,-0.1015625,3502952380,1
-0.23046875,0.697265625,-0.060546875,3502952380,1
-0.2421875,0.73828125,-0.037109375,3502952380,1
-0.21875,0.73828125,-0.111328125,3552952483,2
-0.126953125,0.779296875,-0.21484375,3552952483,2
-0.349609375,0.73828125,-0.267578125,3552952483,2
-0.337890625,0.8125,-0.189453125,3552952483,2
-0.353515625,0.873046875,-0.009765625,3552952483,2
-0.498046875,0.9375,0.064453125,3552952483,2
-0.517578125,0.974609375,0.060546875,3552952483,2
-0.078125,2.419921875,0.603515625,3552952483,2
-0.080078125,2.50390625,0.390625,3552952483,2
-0.16015625,2.546875,0.353515625,3552952483,2
-0.08203125,2.591796875,0.361328125,3552952483,2
-0.083984375,2.630859375,0.37890625,3552952483,2
0.0,2.666015625,0.42578125,3552952483,2
-0.173828125,2.775390625,0.072265625,3552952483,2
-3.1953125,3.912109375,0.7890625,3552952483,2
-3.220703125,3.95703125,0.728515625,3552952483,2
-3.24609375,4.0,0.669921875,3552952483,2
-3.435546875,3.931640625,0.390625,3552952483,2
-3.158203125,3.330078125,2.6875,3552952483,2
-3.181640625,3.6015625,2.37109375,3552952483,2
-3.20703125,3.658203125,2.34375,3552952483,2
-4.072265625,5.984375,-0.11328125,3552952483,2
-4.095703125,0.05078125,0.001953125,3552952483,2
0.14453125,0.052734375,0.001953125,3552952483,2
0.138671875,0.0546875,0.001953125,3552952483,2
0.1015625,0.119140625,0.001953125,3552952483,2
0.748046875,0.12109375,0.001953125,3552952483,2
0.50390625,0.123046875,0.001953125,3552952483,2
0.451171875,0.125,0.001953125,3552952483,2
0.484375,0.126953125,0.001953125,3552952483,2
0.482421875,0.12890625,0.001953125,3552952483,2
0.4921875,0.24609375,0.001953125,3552952483,2
1.1171875,0.255859375,0.001953125,3552952483,2
2.771484375,0.2578125,0.001953125,3552952483,2
2.7421875,0.0390625,0.00390625,3552952483,2
-0.20703125,0.041015625,0.00390625,3552952483,2
-0.1953125,0.04296875,0.00390625,3552952483,2
-0.025390625,0.044921875,0.00390625,3552952483,2
0.060546875,0.046875,0.00390625,3552952483,2
0.107421875,0.048828125,0.00390625,3552952483,2
0.1484375,0.05078125,0.00390625,3552952483,2
0.205078125,0.052734375,0.00390625,3552952483,2
0.17578125,0.0546875,0.00390625,3552952483,2
0.15234375,0.123046875,0.00390625,3552952483,2
0.556640625,0.125,0.00390625,3552952483,2
0.580078125,0.126953125,0.00390625,3552952483,2
0.609375,0.12890625,0.00390625,3552952483,2
0.7109375,0.03515625,0.005859375,3552952483,2
0.013671875,0.037109375,0.005859375,3552952483,2
0.046875,0.0390625,0.005859375,3552952483,2
0.015625,0.041015625,0.005859375,3552952483,2
-0.044921875,0.04296875,0.005859375,3552952483,2
0.0078125,0.044921875,0.005859375,3552952483,2
0.14453125,0.046875,0.005859375,3552952483,2
0.201171875,0.048828125,0.005859375,3552952483,2
0.189453125,0.05859375,0.005859375,3552952483,2
0.517578125,0.125,0.005859375,3552952483,2
0.904296875,0.126953125,0.005859375,3552952483,2
0.818359375,0.0234375,0.0,3552952483,2
0.0,0.013671875,0.0,3552952483,2
3.515625,0.009765625,0.50390625,3552952483,2
0.01953125,0.005859375,0.0,3552952483,2
0.0,0.001953125,0.0,3552952483,2
0.0,0.125,0.017578125,3552952483,2
0.146484375,1.44140625,0.5625,4194397842,2
0.05078125,1.505859375,0.5234375,4194397842,2
0.0,1.552734375,0.513671875,4194397842,2
0.09375,1.498046875,0.1875,4194397842,2
0.193359375,1.513671875,0.294921875,4194397842,2
0.150390625,1.556640625,0.31640625,4194397842,2
0.046875,1.451171875,0.25,4244772320,3
0.142578125,1.44921875,0.41015625,4244772320,3
0.146484375,1.474609375,0.46875,4244772320,3
0.150390625,1.515625,0.47265625,4244772320,3
0.154296875,1.57421875,0.416015625,4244772320,3
0.10546875,1.583984375,0.5390625,4244772320,3
-0.134765625,1.4140625,0.185546875,4244772320,3
-0.091796875,1.458984375,0.173828125,4244772320,3
-0.142578125,1.498046875,0.16015625,4244772320,3
0.193359375,1.2421875,0.9140625,4244772320,3
0.150390625,1.34765625,0.841796875,4244772320,3
0.154296875,1.509765625,0.61328125,4244772320,3
0.158203125,1.54296875,0.638671875,4244772320,3
0.189453125,1.46484375,0.33203125,4244772320,3
0.193359375,1.50390625,0.337890625,4244772320,3
0.19921875,1.541015625,0.359375,4244772320,3
0.154296875,1.603515625,0.287109375,4244772320,3
-0.134765625,1.423828125,-0.07421875,4244772320,3
-0.091796875,1.46875,-0.044921875,4244772320,3
0.189453125,1.43359375,0.4453125,4244772320,3
0.146484375,1.48046875,0.451171875,4244772320,3
0.150390625,1.51953125,0.4609375,4244772320,3
0.154296875,1.583984375,0.380859375,4244772320,3
0.158203125,1.603515625,0.46875,4244772320,3
0.107421875,1.61328125,0.580078125,4244772320,3
-0.291015625,1.52734375,0.0390625,4244772320,3
0.05078125,1.46875,0.619140625,4294635345,4
0.0,1.5625,0.486328125,4294635345,4
0.0,1.6015625,0.5,4294635345,4
0.0,1.642578125,0.505859375,4294635345,4
0.09375,1.486328125,0.26953125,4294635345,4
0.09765625,1.51953125,0.31640625,4294635345,4
0.099609375,1.5703125,0.26171875,4294635345,4
-0.1015625,1.541015625,0.541015625,4294635345,4
-0.158203125,1.5546875,0.609375,4294635345,4
-0.267578125,1.55078125,0.6875,4294635345,4
-0.10546875,1.658203125,0.224609375,4294635345,4
0.0,1.470703125,-0.06640625,4294635345,4
0.046875,1.51171875,0.021484375,4294635345,4
0.048828125,1.548828125,0.123046875,4294635345,4
-0.05078125,1.599609375,0.341796875,4294635345,4
-0.10546875,1.630859375,0.380859375,4294635345,4
-0.16015625,1.666015625,0.384765625,4294635345,4
-0.1640625,1.697265625,0.43359375,4294635345,4
0.0,1.48046875,0.318359375,49752415,5
0.048828125,1.484375,0.462890625,49752415,5
0.05078125,1.498046875,0.546875,49752415,5
0.05078125,1.4609375,0.734375,49752415,5
-0.26171875,1.568359375,0.53125,49752415,5
-0.267578125,1.609375,0.53515625,49752415,5
-0.09765625,1.51953125,0.310546875,49752415,5
-0.150390625,1.548828125,0.349609375,49752415,5
0.0,1.572265625,0.455078125,49752415,5
-0.158203125,1.568359375,0.5703125,49752415,5
-0.21484375,1.576171875,0.6484375,49752415,5
0.046875,1.4921875,0.248046875,49752415,5
0.048828125,1.505859375,0.380859375,49752415,5
0.05078125,1.53515625,0.43359375,49752415,5
-0.208984375,1.62890625,0.341796875,49752415,5
-0.21484375,1.666015625,0.357421875,49752415,5
0.046875,1.466796875,0.11328125,49752415,5
0.046875,1.47265625,0.345703125,49752415,5
0.048828125,1.482421875,0.462890625,49752415,5
0.0,1.513671875,0.505859375,49752415,5
-0.208984375,1.609375,0.421875,49752415,5
-0.21484375,1.646484375,0.443359375,49752415,5
0.349609375,1.001953125,1.19140625,49752415,5
0.0,1.544921875,0.3984375,99746382,6
0.05078125,1.58203125,0.412109375,99746382,6
0.052734375,1.625,0.412109375,99746382,6
0.052734375,1.658203125,0.4453125,99746382,6
0.0,1.6796875,0.51953125,99746382,6
0.0,1.41796875,0.3984375,99746382,6
0.0,1.455078125,0.41796875,99746382,6
0.0,1.46875,0.509765625,99746382,6
0.0,1.50390625,0.529296875,99746382,6
-0.05078125,1.56640625,0.46875,99746382,6
-0.208984375,1.52734375,0.66015625,99746382,6
-0.267578125,1.56640625,0.65234375,99746382,6
0.0,1.580078125,0.22265625,99746382,6
0.05078125,1.619140625,0.228515625,99746382,6
0.10546875,1.6640625,0.177734375,99746382,6
0.107421875,1.70703125,0.16015625,99746382,6
0.0,1.515625,0.34375,99746382,6
0.0,1.564453125,0.314453125,99746382,6
0.05078125,1.609375,0.291015625,99746382,6
0.10546875,1.658203125,0.22265625,99746382,6
0.107421875,1.701171875,0.208984375,99746382,6
0.0,1.7109375,0.408203125,99746382,6
-0.67578125,1.189453125,-1.408203125,2546198731,1687
-0.689453125,1.265625,-1.392578125,2546198731,1687
-0.703125,1.419921875,-1.294921875,2546198731,1687
-0.65234375,1.552734375,-1.232421875,2546198731,1687
-0.59765625,1.578125,-1.296875,2546198731,1687
-0.609375,1.595703125,-1.3359375,2546198731,1687
-0.638671875,1.400390625,-1.345703125,2546198731,1687
-0.65234375,1.44140625,-1.361328125,2546198731,1687
-0.6640625,1.521484375,-1.330078125,2546198731,1687
-0.19140625,0.919921875,1.81640625,2546198731,1687
-0.26171875,0.96875,1.830078125,2546198731,1687
-0.1875,1.244140625,1.560546875,2546198731,1687
-0.19140625,1.216796875,1.6328125,2546198731,1687
-0.26171875,1.126953125,1.736328125,2546198731,1687
-0.265625,1.078125,1.814453125,2546198731,1687
-0.125,1.0390625,1.708984375,2546198731,1687
-0.19140625,1.021484375,1.76171875,2546198731,1687
-0.26171875,0.94921875,1.83984375,2546198731,1687
-0.265625,0.849609375,1.931640625,2546198731,1687
-0.40625,0.35546875,2.099609375,2546198731,1687
-0.689453125,0.45703125,1.826171875,2546198731,1687
-0.703125,0.453125,1.8671875,2546198731,1687
-0.783203125,0.142578125,1.9296875,2546198731,1687
-0.86328125,0.0,2.015625,2546198731,1687
-2.404296875,3.2578125,-0.044921875,2546198731,1687
-2.4296875,3.28515625,-0.19140625,2546198731,1687
-2.58203125,3.208984375,-0.328125,2546198731,1687
-0.689453125,0.0,1.958984375,2546198731,1687
-0.703125,0.0,1.986328125,2546198731,1687
-0.783203125,0.0,2.005859375,2546198731,1687
-0.9296875,0.0,2.046875,2546198731,1687
-2.404296875,3.255859375,0.140625,2546198731,1687
-2.556640625,3.193359375,-0.0078125,2546198731,1687
-2.58203125,3.220703125,-0.1875,2546198731,1687
-2.607421875,3.232421875,-0.400390625,2546198731,1687
-0.626953125,0.0,-1.958984375,2546198731,1687
-0.703125,0.0,-2.04296875,2546198731,1687
-0.716796875,0.0,2.052734375,2546198731,1687
-0.796875,0.0,2.041015625,2546198731,1687
-2.404296875,3.248046875,0.267578125,2546198731,1687
-2.556640625,3.19140625,0.130859375,2546198731,1687
-2.58203125,3.224609375,-0.0546875,2546198731,1687
-2.607421875,3.248046875,-0.255859375,2546198731,1687
-0.564453125,0.0,-1.966796875,2546198731,1687
-0.638671875,0.0,-2.013671875,2546198731,1687
-0.65234375,0.0,2.080078125,2546198731,1687
-0.73046875,0.0,2.03515625,2546198731,1687
-0.8125,0.0,2.154296875,2546198731,1687
2.658203125,3.052734375,0.1484375,2546198731,1687
2.8125,2.900390625,0.638671875,2546198731,1687
-0.419921875,0.353515625,-1.841796875,2546198731,1687
-0.490234375,0.3203125,-1.873046875,2546198731,1687
-0.501953125,0.359375,-1.90625,2546198731,1687
-0.51171875,0.12109375,-1.9765625,2546198731,1687
-0.716796875,0.0,-2.05859375,2546198731,1687
-0.73046875,0.0,-2.0078125,2546198731,1687
-0.74609375,0.505859375,-1.97265625,2546198731,1687
-0.759765625,0.720703125,-1.9453125,2546198731,1687
-0.48046875,0.630859375,-1.751953125,2546198731,1687
-0.490234375,0.697265625,-1.767578125,2546198731,1687
-0.501953125,0.79296875,-1.771484375,2546198731,1687
-0.51171875,0.861328125,-1.783203125,2546198731,1687
-0.5859375,0.427734375,-1.955078125,2546198731,1687
-0.53125,1.271484375,-1.619140625,2546198731,1687
-0.64453125,1.0234375,-1.220703125,2596194689,1688
-0.76953125,0.650390625,1.05859375,2596194689,1688
2.513671875,1.0,32.001953125,2596194689,1688
0.5,0.0,-11.0,2596194689,1688
0.5,0.0,0.5,2596194689,1688
32.0,4.5,10.5,2596194689,1688
0.498046875,-40.0,11.001953125,2596194689,1688
0.498046875,-33.0,11.501953125,2596194689,1688
30.998046875,-29.0,12.001953125,2596194689,1688
23.498046875,-16.0,12.501953125,2596194689,1688
29.498046875,49.001953125,13.49609375,2596194689,1688
-59.501953125,-59.498046875,13.99609375,2596194689,1688
32.498046875,27.001953125,14.49609375,2596194689,1688
-7.501953125,-5.5,11.494140625,2596194689,1688
-25.501953125,55.5,11.99609375,2596194689,1688
5.998046875,60.501953125,12.49609375,2596194689,1688
43.498046875,-50.498046875,12.99609375,2596194689,1688
-54.001953125,-38.498046875,13.49609375,2596194689,1688
60.498046875,60.501953125,13.99609375,2596194689,1688
40.498046875,31.501953125,14.49609375,2596194689,1688
5.998046875,0.501953125,14.99609375,2596194689,1688
38.498046875,16.501953125,10.99609375,2596194689,1688
-26.001953125,-52.0,11.49609375,2596194689,1688
3.998046875,-49.498046875,11.99609375,2596194689,1688
26.998046875,-48.998046875,12.49609375,2596194689,1688
46.998046875,-48.498046875,12.99609375,2596194689,1688
-46.001953125,8.0,13.49609375,2596194689,1688
25.498046875,31.501953125,13.99609375,2596194689,1688
11.998046875,11.501953125,14.49609375,2596194689,1688
63.498046875,-29.0,14.994140625,2596194689,1688
-35.001953125,30.5,11.00390625,2596194689,1688
10.998046875,-43.998046875,11.99609375,2596194689,1688
-57.501953125,38.0,12.49609375,2596194689,1688
-33.501953125,43.0,12.99609375,2596194689,1688
-14.501953125,45.0,13.49609375,2596194689,1688
-19.501953125,36.0,13.99609375,2596194689,1688
40.998046875,33.001953125,14.49609375,2596194689,1688
-35.001953125,-59.498046875,14.99609375,2596194689,1688
61.998046875,38.501953125,15.49609375,2596194689,1688
29.498046875,10.501953125,10.49609375,2596194689,1688
-31.501953125,-46.0,10.99609375,2596194689,1688
-32.501953125,-58.0,11.49609375,2596194689,1688
-28.001953125,-64.0,11.99609375,2596194689,1688
-28.001953125,56.0,12.49609375,2596194689,1688
-15.501953125,51.5,12.99609375,2596194689,1688
-2.501953125,52.0,13.49609375,2596194689,1688
16.498046875,53.001953125,13.99609375,2596194689,1688
-45.001953125,-55.498046875,14.49609375,2596194689,1688
2.998046875,-2.99609375,14.99609375,2596194689,1688
45.998046875,-22.99609375,15.498046875,2596194689,1688
-48.501953125,57.001953125,10.49609375,2596194689,1688
-2.001953125,-26.5,10.99609375,2596194689,1688
-8.501953125,-41.0,11.49609375,2596194689,1688
-9.001953125,-53.0,11.99609375,2596194689,1688
-5.501953125,-62.5,12.49609375,2596194689,1688
-0.001953125,57.5,12.99609375,2596194689,1688
17.498046875,57.501953125,13.49609375,2596194689,1688
40.998046875,56.501953125,13.99609375,2596194689,1688
-40.501953125,-44.498046875,14.49609375,2596194689,1688
0.498046875,-4.49609375,14.99609375,2596194689,1688
38.998046875,-58.99609375,15.0,2596194689,1688
-41.50390625,-48.498046875,10.99609375,2596194689,1688
-8.501953125,-50.5,11.49609375,2596194689,1688
-25.501953125,55.5,11.99609375,2596194689,1688
-0.173828125,0.0,-0.681640625,1819621547,2
-0.18359375,0.140625,-0.69921875,1819621547,2
-0.193359375,0.267578125,-0.703125,1819621547,2
-0.1796875,0.40234375,-0.689453125,1819621547,2
-0.375,0.0,-0.814453125,1819621547,2
-0.337890625,0.255859375,-0.794921875,1819621547,2
-0.3828125,0.447265625,-0.734375,1819621547,2
-0.4296875,0.439453125,-0.765625,1819621547,2
-0.447265625,0.5703125,-0.72265625,1819621547,2
-0.498046875,0.615234375,-0.7109375,1819621547,2
-0.517578125,0.505859375,-0.833984375,1819621547,2
-0.1953125,0.296875,-0.59765625,1819621547,2
-0.20703125,0.296875,-0.640625,1819621547,2
-0.21875,0.341796875,-0.662109375,1819621547,2
-0.154296875,0.544921875,-0.591796875,1819621547,2
-0.349609375,0.232421875,-0.75,1819621547,2
-0.365234375,0.49609375,-0.65625,1819621547,2
-0.412109375,0.49609375,-0.685546875,1819621547,2
-0.4296875,0.5390625,-0.69921875,1819621547,2
-0.478515625,0.623046875,-0.654296875,1819621547,2
-0.46484375,0.736328125,-0.611328125,1819621547,2
-0.482421875,0.77734375,-0.619140625,1819621547,2
-0.1953125,0.3203125,-0.5859375,1819621547,2
-0.20703125,0.33203125,-0.623046875,1819621547,2
-0.21875,0.375,-0.64453125,1819621547,2
-0.28125,0.53125,-0.5546875,1819621547,2
-0.322265625,0.13671875,-0.78515625,1819621547,2
-0.365234375,0.59765625,-0.564453125,1819621547,2
-0.3828125,0.4765625,-0.71484375,1819621547,2
-0.4296875,0.5078125,-0.72265625,1819621547,2
-0.447265625,0.673828125,-0.626953125,1819621547,2
-0.431640625,0.779296875,-0.58203125,1819621547,2
-0.173828125,0.31640625,-0.59375,1819621547,2
-0.18359375,0.318359375,-0.638671875,1819621547,2
-0.146484375,0.09375,-0.7578125,1819621547,2
-0.05078125,0.359375,-0.732421875,1819621547,2
-0.294921875,0.234375,0.771484375,1819621547,2
-0.28125,0.85546875,0.013671875,1819621547,2
-0.294921875,0.505859375,-0.736328125,1819621547,2
-0.306640625,0.662109375,-0.65625,1819621547,2
-0.435546875,1.15234375,0.6484375,1819621547,2
0.08984375,1.21484375,-0.75390625,1819621547,2
-0.15234375,0.337890625,-0.587890625,1819621547,2
-0.16015625,0.3359375,-0.634765625,1819621547,2
-0.146484375,0.013671875,-0.763671875,1819621547,2
-0.1796875,0.236328125,0.76171875,1819621547,2
-0.21484375,0.2734375,0.78515625,1819621547,2
-0.197265625,0.0,-0.896484375,1819621547,2
-0.17578125,0.634765625,-0.671875,1819621547,2
-0.03125,0.748046875,-0.697265625,1819621547,2
-0.099609375,0.83984375,-0.646484375,1819621547,2
0.08984375,1.2890625,-0.615234375,1819621547,2
-0.173828125,0.4140625,-0.53125,1819621547,2
-0.16015625,0.228515625,-0.681640625,1819621547,2
-0.169921875,0.0,0.775390625,1819621547,2
-0.1796875,0.0,0.802734375,1819621547,2
-0.1875,0.0,-0.849609375,1819621547,2
-0.197265625,0.333984375,-0.8125,1819621547,2
0.0,0.2890625,-0.89453125,1819621547,2
-0.060546875,0.71875,-0.666015625,1819621547,2
-0.064453125,0.82421875,-0.6015625,1819621547,2
-0.099609375,0.87109375,-0.6015625,1819621547,2
-0.173828125,0.400390625,-0.541015625,1819621547,2
-0.16015625,0.330078125,-0.638671875,1819621547,2
-0.1015625,0.57421875,0.298828125,1869628010,3
-0.087890625,0.564453125,0.3984375,1869628010,3
-0.138671875,0.5546875,0.46484375,1869628010,3
-0.193359375,0.580078125,0.48046875,1869628010,3
-0.306640625,0.486328125,0.58203125,1869628010,3
-0.349609375,0.47265625,0.626953125,1869628010,3
-0.02734375,0.494140625,-0.751953125,1869628010,3
-0.087890625,0.53515625,0.4375,1869628010,3
-0.115234375,0.5390625,0.48828125,1869628010,3
-0.12109375,0.671875,0.369140625,1869628010,3
-0.33203125,0.333984375,0.66796875,1869628010,3
-0.375,0.29296875,0.71484375,1869628010,3
-0.298828125,0.34765625,0.576171875,1869628010,3
-0.31640625,0.326171875,0.630859375,1869628010,3
-0.33203125,0.28125,0.693359375,1869628010,3
-0.375,0.21875,0.740234375,1869628010,3
-0.298828125,0.271484375,0.615234375,1869628010,3
-0.31640625,0.208984375,0.677734375,1869628010,3
-0.357421875,0.0,0.736328125,1869628010,3
-0.375,0.0,0.80859375,1869628010,3
-0.39453125,0.0,-0.890625,1869628010,3
-0.3046875,0.224609375,0.583984375,1869628010,3
-0.298828125,0.140625,0.658203125,1869628010,3
-0.31640625,0.0,0.716796875,1869628010,3
-0.357421875,0.0,0.775390625,1869628010,3
-0.375,0.0,0.841796875,1869628010,3
