-0.16796875,0.4609375,0.005859375,4285767394,3
-0.166015625,0.50390625,0.015625,4285767394,3
-0.05078125,0.32421875,0.41796875,4285767394,3
-0.1328125,0.513671875,-0.03125,4285767394,3
0.033203125,0.3046875,0.43359375,4285767394,3
-0.23828125,0.37890625,0.048828125,40637408,4
-0.26171875,0.400390625,0.11328125,40637408,4
-0.126953125,0.38671875,0.03515625,40637408,4
-0.2109375,0.390625,0.072265625,40637408,4
-0.23046875,0.419921875,0.111328125,40637408,4
-0.224609375,0.375,0.103515625,40637408,4
-0.19921875,0.423828125,0.1484375,40637408,4
-0.2109375,0.396484375,-0.013671875,40637408,4
-0.23046875,0.43359375,0.01953125,40637408,4
-0.1796875,0.3671875,0.0234375,40637408,4
-0.197265625,0.404296875,0.01953125,40637408,4
-0.21484375,0.4375,0.056640625,40637408,4
-0.25,0.390625,0.259765625,40637408,4
-0.431640625,0.27734375,-0.140625,40637408,4
-0.154296875,0.37890625,0.009765625,90784632,5
-0.2109375,0.396484375,0.009765625,90784632,5
-0.19921875,0.443359375,0.072265625,90784632,5
-0.080078125,0.34765625,0.087890625,90784632,5
-0.154296875,0.376953125,0.0390625,90784632,5
-0.2109375,0.39453125,0.05078125,90784632,5
-0.21484375,0.431640625,0.09375,90784632,5
-0.216796875,0.4375,0.212890625,90784632,5
-0.166015625,0.369140625,0.060546875,90784632,5
-0.2109375,0.390625,0.076171875,90784632,5
-0.21484375,0.423828125,0.125,90784632,5
-0.080078125,0.359375,0.017578125,90784632,5
-0.126953125,0.38671875,-0.03125,90784632,5
-0.197265625,0.40234375,-0.03515625,90784632,5
-0.21484375,0.44140625,0.00390625,90784632,5
-0.080078125,0.357421875,0.041015625,90784632,5
-0.126953125,0.388671875,-0.0078125,90784632,5
-0.197265625,0.404296875,-0.005859375,90784632,5
-0.21484375,0.439453125,0.033203125,90784632,5
-0.19921875,0.466796875,0.158203125,90784632,5
-0.126953125,0.38671875,0.04296875,90784632,5
-0.197265625,0.400390625,0.0625,140758486,6
-0.19921875,0.443359375,0.0625,140758486,6
-0.080078125,0.345703125,0.09765625,140758486,6
-0.1015625,0.39453125,0.033203125,140758486,6
-0.197265625,0.39453125,0.087890625,140758486,6
-0.19921875,0.439453125,0.091796875,140758486,6
-0.19921875,0.48046875,0.109375,140758486,6
-0.1015625,0.392578125,0.05859375,140758486,6
-0.2109375,0.380859375,0.11328125,140758486,6
-0.21484375,0.42578125,0.119140625,140758486,6
-0.068359375,0.361328125,0.0234375,140758486,6
-0.1015625,0.39453125,-0.033203125,140758486,6
-0.197265625,0.404296875,0.001953125,140758486,6
-0.18359375,0.455078125,0.005859375,140758486,6
-0.068359375,0.357421875,0.048828125,140758486,6
-0.1015625,0.396484375,-0.01171875,140758486,6
-0.197265625,0.404296875,0.029296875,140758486,6
-0.18359375,0.453125,0.03515625,140758486,6
-0.216796875,0.484375,0.046875,140758486,6
-0.216796875,0.326171875,0.1171875,140758486,6
-0.205078125,0.345703125,0.078125,140758486,6
-0.24609375,0.392578125,0.1640625,1056294183,282
-0.283203125,0.4140625,0.177734375,1056294183,282
-0.287109375,0.455078125,0.1953125,1056294183,282
-0.306640625,0.509765625,0.150390625,1056294183,282
-0.51171875,0.404296875,0.052734375,1056294183,282
-0.54296875,0.4296875,0.0546875,1056294183,282
-0.576171875,0.451171875,0.091796875,1056294183,282
-0.58203125,0.509765625,0.0703125,1056294183,282
-0.265625,0.44921875,0.103515625,1056294183,282
-0.375,0.2890625,0.3203125,1056294183,282
-0.517578125,0.328125,0.03125,1056294183,282
-0.53125,0.376953125,0.0625,1056294183,282
-0.564453125,0.392578125,0.099609375,1056294183,282
-0.576171875,0.4375,0.142578125,1056294183,282
-0.58203125,0.501953125,0.111328125,1056294183,282
-0.83203125,0.9375,0.1953125,1056294183,282
-0.265625,0.451171875,0.087890625,1056294183,282
-0.412109375,0.271484375,0.291015625,1056294183,282
-0.40234375,0.4140625,-0.20703125,1056294183,282
-0.53125,0.365234375,0.107421875,1056294183,282
-0.564453125,0.37890625,0.14453125,1056294183,282
-0.576171875,0.423828125,0.177734375,1056294183,282
-0.58203125,0.5,0.1171875,1056294183,282
-0.3046875,0.25390625,0.4140625,1056294183,282
-0.287109375,0.0,0.583984375,1056294183,282
-0.53125,0.36328125,0.119140625,1056294183,282
-0.564453125,0.384765625,0.126953125,1056294183,282
-0.576171875,0.45703125,0.048828125,1056294183,282
-0.31640625,0.36328125,0.2265625,1056294183,282
-0.33984375,0.365234375,0.28125,1056294183,282
-0.24609375,0.41015625,0.11328125,1056294183,282
-0.283203125,0.431640625,0.1328125,1056294183,282
-0.3046875,0.46484375,0.140625,1056294183,282
-0.306640625,0.5078125,0.158203125,1056294183,282
-0.306640625,0.54296875,0.201171875,1056294183,282
-0.24609375,0.404296875,0.130859375,1056294183,282
-0.283203125,0.42578125,0.14453125,1056294183,282
-0.287109375,0.46875,0.162109375,1056294183,282
-0.306640625,0.501953125,0.177734375,1056294183,282
-0.306640625,0.5390625,0.20703125,1056294183,282
-0.75390625,1.0078125,0.158203125,1056294183,282
-0.34765625,0.53515625,-0.142578125,1056294183,282
-0.326171875,0.0,-0.521484375,1056294183,282
-0.21484375,0.5234375,-0.09375,1056294183,282
-0.125,0.505859375,-0.23828125,1056294183,282
-0.517578125,0.322265625,0.068359375,1056294183,282
-0.287109375,0.123046875,-0.576171875,1056294183,282
-0.1953125,0.0,-0.6796875,1056294183,282
-0.107421875,0.0,0.5703125,1056294183,282
0.306640625,0.3828125,-0.01953125,4020154042,1
0.33203125,0.4140625,0.013671875,4020154042,1
0.357421875,0.4453125,0.046875,4020154042,1
0.365234375,0.482421875,0.1015625,4020154042,1
0.388671875,0.4921875,0.1875,4020154042,1
0.369140625,0.57421875,0.1328125,4020154042,1
-0.1796875,0.794921875,-0.0703125,4020154042,1
-0.1875,0.8359375,-0.060546875,4020154042,1
-0.197265625,0.876953125,-0.04296875,4020154042,1
-0.234375,0.91015625,0.001953125,4020154042,1
-0.03125,0.99609375,-0.2265625,4020154042,1
-0.033203125,1.041015625,-0.212890625,4020154042,1
-0.03515625,1.0703125,-0.2734375,4020154042,1
0.64453125,0.91796875,0.234375,4020154042,1
0.630859375,0.806640625,0.599609375,4020154042,1
0.291015625,0.39453125,-0.01171875,4020154042,1
0.33203125,0.4140625,0.033203125,4020154042,1
0.357421875,0.44140625,0.068359375,4020154042,1
0.3828125,0.46484375,0.115234375,4020154042,1
0.3671875,0.490234375,0.23046875,4020154042,1
0.34765625,0.580078125,0.158203125,4020154042,1
0.3671875,0.634765625,0.056640625,4020154042,1
-0.205078125,0.791015625,-0.01953125,4020154042,1
-0.21484375,0.83203125,-0.005859375,4020154042,1
-0.197265625,0.876953125,0.025390625,4020154042,1
-0.234375,0.908203125,0.06640625,4020154042,1
-0.337890625,0.904296875,0.177734375,4020154042,1
-0.03125,1.015625,-0.12109375,4020154042,1
-0.033203125,1.052734375,-0.142578125,4020154042,1
-0.068359375,1.078125,-0.2265625,4020154042,1
0.6796875,0.892578125,0.232421875,4020154042,1
0.630859375,0.8359375,0.556640625,4020154042,1
0.33203125,0.41015625,0.068359375,4020154042,1
0.357421875,0.435546875,0.10546875,4020154042,1
0.365234375,0.46484375,0.166015625,4020154042,1
0.3671875,0.46875,0.26953125,4020154042,1
0.345703125,0.642578125,0.095703125,4020154042,1
-0.21484375,0.830078125,0.05078125,4020154042,1
-0.224609375,0.8671875,0.08203125,4020154042,1
-0.234375,0.900390625,0.13671875,4020154042,1
-0.03125,1.021484375,-0.04296875,4020154042,1
-0.06640625,1.060546875,-0.0390625,4020154042,1
-0.068359375,1.09765625,-0.1015625,4020154042,1
0.64453125,0.880859375,0.349609375,4020154042,1
-0.25390625,0.859375,0.087890625,4020154042,1
-0.1328125,1.05078125,0.09765625,4020154042,1
-0.16796875,0.865234375,0.177734375,4020154042,1
-0.17578125,0.888671875,0.255859375,4020154042,1
-0.140625,0.80859375,0.3671875,4020154042,1
-0.146484375,0.85546875,0.36328125,4020154042,1
-0.24609375,0.9140625,0.2578125,4020154042,1
0.349609375,0.392578125,-0.083984375,4020154042,1
0.375,0.4296875,-0.048828125,4020154042,1
0.40234375,0.462890625,-0.017578125,4020154042,1
-0.1875,0.83203125,-0.095703125,4020154042,1
-0.197265625,0.876953125,-0.03125,4020154042,1
-0.205078125,0.916015625,0.046875,4020154042,1
0.0,0.892578125,-0.650390625,4020154042,1
0.716796875,0.892578125,-0.048828125,4020154042,1
0.306640625,0.369140625,-0.103515625,4020154042,1
0.349609375,0.3984375,-0.052734375,4020154042,1
0.375,0.431640625,-0.021484375,4020154042,1
0.3828125,0.478515625,0.03125,4020154042,1
0.388671875,0.509765625,0.1328125,4020154042,1
0.349609375,0.38671875,-0.107421875,4069885002,2
0.375,0.423828125,-0.083984375,4069885002,2
0.365234375,0.490234375,-0.056640625,4069885002,2
0.34765625,0.5546875,-0.00390625,4069885002,2
0.34765625,0.6015625,0.02734375,4069885002,2
0.3671875,0.63671875,0.01171875,4069885002,2
-0.267578125,0.783203125,-0.228515625,4069885002,2
-0.25390625,0.748046875,-0.43359375,4069885002,2
-0.064453125,1.01953125,0.060546875,4069885002,2
-0.06640625,1.060546875,0.013671875,4069885002,2
-0.103515625,1.099609375,0.02734375,4069885002,2
0.306640625,0.35546875,-0.140625,4069885002,2
0.33203125,0.412109375,-0.0546875,4069885002,2
0.357421875,0.447265625,-0.013671875,4069885002,2
0.365234375,0.494140625,0.01953125,4069885002,2
0.34765625,0.55078125,0.0625,4069885002,2
0.326171875,0.60546875,0.107421875,4069885002,2
0.3671875,0.6328125,0.078125,4069885002,2
0.365234375,0.68359375,0.060546875,4069885002,2
-0.064453125,1.01171875,0.12890625,4069885002,2
-0.099609375,1.0546875,0.099609375,4069885002,2
-0.138671875,1.08984375,0.109375,4069885002,2
0.33203125,0.4140625,-0.01953125,4069885002,2
0.357421875,0.447265625,0.021484375,4069885002,2
0.365234375,0.490234375,0.056640625,4069885002,2
0.34765625,0.544921875,0.1015625,4069885002,2
0.326171875,0.59375,0.15625,4069885002,2
0.345703125,0.638671875,0.125,4069885002,2
-0.095703125,0.99609375,0.20703125,4069885002,2
-0.099609375,1.046875,0.16015625,4069885002,2
-0.138671875,1.080078125,0.181640625,4069885002,2
0.33203125,0.388671875,-0.14453125,4069885002,2
0.357421875,0.43359375,-0.10546875,4069885002,2
0.3828125,0.47265625,-0.078125,4069885002,2
0.388671875,0.521484375,-0.06640625,4069885002,2
-0.353515625,0.8671875,0.09765625,4069885002,2
-0.3671875,0.880859375,0.232421875,4069885002,2
-0.166015625,1.05078125,0.0234375,4069885002,2
0.306640625,0.32421875,-0.203125,4069885002,2
0.33203125,0.3984375,-0.115234375,4069885002,2
0.357421875,0.44140625,-0.072265625,4069885002,2
0.3828125,0.4765625,-0.046875,4069885002,2
0.388671875,0.525390625,-0.02734375,4069885002,2
0.34765625,0.6015625,0.037109375,4069885002,2
0.3671875,0.63671875,-0.009765625,4069885002,2
-0.353515625,0.857421875,0.162109375,4069885002,2
-0.3671875,0.861328125,0.294921875,4069885002,2
-0.255859375,0.9296875,0.341796875,4069885002,2
-0.19921875,1.0390625,0.099609375,4069885002,2
-0.20703125,1.08203125,-0.078125,4069885002,2
0.552734375,0.0,0.61328125,4069885002,2
0.572265625,0.0,-0.458984375,4069885002,2
0.572265625,0.0,-0.404296875,4069885002,2
0.431640625,0.58984375,0.7734375,4069885002,2
0.3984375,0.466796875,0.8671875,4069885002,2
0.79296875,0.75,-0.16796875,4069885002,2
-0.2421875,0.81640625,-0.107421875,4119815863,3
-0.30859375,0.794921875,-0.287109375,4119815863,3
-0.087890625,0.935546875,-0.02734375,4119815863,3
-0.091796875,0.9765625,-0.009765625,4119815863,3
-0.064453125,1.017578125,-0.078125,4119815863,3
-0.06640625,1.05859375,-0.064453125,4119815863,3
-0.103515625,1.099609375,-0.046875,4119815863,3
-0.107421875,1.13671875,0.099609375,4119815863,3
0.51953125,0.0,1.138671875,4119815863,3
0.33203125,0.41015625,-0.060546875,4119815863,3
0.357421875,0.447265625,0.01171875,4119815863,3
0.40234375,0.4609375,0.04296875,4119815863,3
0.470703125,0.447265625,0.083984375,4119815863,3
0.3046875,0.533203125,0.326171875,4119815863,3
0.322265625,0.560546875,0.353515625,4119815863,3
-0.1875,0.833984375,-0.0859375,4119815863,3
-0.224609375,0.865234375,-0.09765625,4119815863,3
-0.234375,0.90234375,-0.125,4119815863,3
-0.099609375,1.05859375,0.005859375,4119815863,3
-0.138671875,1.095703125,0.009765625,4119815863,3
-0.142578125,1.130859375,0.111328125,4119815863,3
0.482421875,0.0,1.125,4119815863,3
-0.21484375,0.83203125,-0.025390625,4119815863,3
-0.224609375,0.869140625,-0.060546875,4119815863,3
-0.205078125,0.916015625,-0.056640625,4119815863,3
-0.064453125,1.01953125,0.03125,4119815863,3
-0.099609375,1.056640625,0.05859375,4119815863,3
-0.138671875,1.09375,0.072265625,4119815863,3
-0.142578125,1.123046875,0.173828125,4119815863,3
0.482421875,0.0,1.173828125,4119815863,3
-0.130859375,2.08203125,-0.03515625,4119815863,3
0.375,0.427734375,-0.060546875,4119815863,3
0.3828125,0.478515625,-0.029296875,4119815863,3
-0.06640625,1.04296875,-0.197265625,4119815863,3
-0.103515625,1.068359375,-0.255859375,4119815863,3
0.751953125,0.84765625,-0.166015625,4119815863,3
0.779296875,0.888671875,-0.11328125,4119815863,3
0.33203125,0.400390625,-0.109375,4119815863,3
0.357421875,0.4453125,-0.03515625,4119815863,3
0.40234375,0.462890625,0.001953125,4119815863,3
0.44921875,0.474609375,0.0234375,4119815863,3
0.3046875,0.5703125,0.255859375,4119815863,3
-0.099609375,1.048828125,-0.138671875,4119815863,3
-0.103515625,1.080078125,-0.205078125,4119815863,3
0.751953125,0.853515625,-0.134765625,4119815863,3
0.779296875,0.888671875,-0.11328125,4119815863,3
-0.083984375,0.89453125,0.0546875,4119815863,3
-0.3828125,0.64453125,-0.568359375,4119815863,3
0.537109375,0.0,1.12109375,4119815863,3
-0.654296875,0.0,-0.1875,4119815863,3
-0.65234375,0.0,-0.33203125,4119815863,3
0.046875,0.353515625,-0.64453125,4119815863,3
0.46484375,0.0,1.087890625,4119815863,3
0.46484375,0.0,1.125,4119815863,3
0.796875,0.673828125,-0.203125,4119815863,3
0.79296875,0.734375,-0.2265625,4119815863,3
-0.537109375,1.01171875,0.005859375,4119815863,3
-0.59375,1.025390625,-0.052734375,4119815863,3
0.796875,0.689453125,-0.13671875,4119815863,3
0.79296875,0.75,-0.166015625,4119815863,3
-0.537109375,1.0078125,0.0859375,4119815863,3
-0.59375,1.025390625,0.05078125,4119815863,3
-0.267578125,0.81640625,-0.001953125,4169515888,4
-0.30859375,0.845703125,-0.009765625,4169515888,4
-0.32421875,0.8828125,0.025390625,4169515888,4
-0.3984375,0.896484375,0.013671875,4169515888,4
-0.447265625,0.91796875,0.06640625,4169515888,4
-0.033203125,1.046875,-0.1796875,4169515888,4
-0.068359375,1.08984375,-0.16796875,4169515888,4
0.3984375,0.349609375,0.029296875,4169515888,4
0.39453125,0.4140625,0.04296875,4169515888,4
0.40234375,0.462890625,-0.0234375,4169515888,4
-0.365234375,0.8203125,-0.068359375,4169515888,4
-0.3828125,0.859375,-0.029296875,4169515888,4
-0.4296875,0.8828125,-0.009765625,4169515888,4
-0.099609375,0.994140625,0.36328125,4169515888,4
-0.138671875,1.009765625,0.427734375,4169515888,4
-0.412109375,0.845703125,0.0078125,4169515888,4
-0.4296875,0.880859375,0.0703125,4169515888,4
-0.267578125,0.798828125,-0.169921875,4169515888,4
-0.30859375,0.82421875,-0.185546875,4169515888,4
-0.353515625,0.85546875,-0.169921875,4169515888,4
-0.3984375,0.8828125,-0.158203125,4169515888,4
-0.416015625,0.923828125,-0.142578125,4169515888,4
0.412109375,0.38671875,-0.09375,4169515888,4
0.3828125,0.443359375,-0.1796875,4169515888,4
-0.267578125,0.80859375,-0.111328125,4169515888,4
-0.30859375,0.837890625,-0.111328125,4169515888,4
-0.353515625,0.8671875,-0.099609375,4169515888,4
-0.3984375,0.892578125,-0.087890625,4169515888,4
-0.447265625,0.9140625,-0.09765625,4169515888,4
-0.06640625,1.033203125,0.2421875,4169515888,4
-0.068359375,1.0859375,0.18359375,4169515888,4
-0.25390625,0.861328125,0.0625,4169515888,4
-0.431640625,0.93359375,0.26953125,4169515888,4
-0.44921875,0.875,0.501953125,4169515888,4
0.365234375,0.0,-1.056640625,4169515888,4
0.37890625,0.400390625,-0.95703125,4169515888,4
-0.087890625,0.49609375,0.794921875,4169515888,4
-0.431640625,0.95703125,-0.169921875,4169515888,4
0.375,0.427734375,0.06640625,4219858106,5
0.421875,0.435546875,0.091796875,4219858106,5
0.44921875,0.46484375,0.1015625,4219858106,5
-0.349609375,0.7265625,-0.296875,4219858106,5
-0.39453125,0.767578125,-0.255859375,4219858106,5
-0.412109375,0.826171875,-0.185546875,4219858106,5
-0.4296875,0.873046875,-0.130859375,4219858106,5
-0.064453125,0.994140625,0.228515625,4219858106,5
-0.06640625,1.0546875,0.111328125,4219858106,5
-0.103515625,1.09375,0.107421875,4219858106,5
0.751953125,0.861328125,0.076171875,4219858106,5
0.7421875,0.921875,0.08984375,4219858106,5
0.767578125,0.953125,0.091796875,4219858106,5
0.349609375,0.3984375,-0.04296875,4219858106,5
0.375,0.431640625,0.017578125,4219858106,5
0.40234375,0.4609375,0.041015625,4219858106,5
0.4296875,0.4921875,0.033203125,4219858106,5
0.435546875,0.529296875,-0.1171875,4219858106,5
-0.267578125,0.765625,-0.283203125,4219858106,5
-0.197265625,0.505859375,-0.716796875,4219858106,5
-0.44140625,0.8125,-0.17578125,4219858106,5
-0.4609375,0.859375,-0.123046875,4219858106,5
0.609375,62.962890625,-0.125,4219858106,5
0.630859375,1.001953125,-0.080078125,4219858106,5
0.689453125,1.013671875,-0.0078125,4219858106,5
0.375,0.427734375,0.05859375,4219858106,5
0.3828125,0.47265625,0.080078125,4219858106,5
-0.39453125,0.78125,-0.2109375,4219858106,5
-0.44140625,0.826171875,-0.09765625,4219858106,5
-0.4609375,0.8671875,-0.0390625,4219858106,5
0.66796875,0.98046875,0.00390625,4219858106,5
0.375,0.423828125,-0.083984375,4219858106,5
0.40234375,0.45703125,-0.078125,4219858106,5
-0.197265625,0.875,-0.064453125,4219858106,5
-0.06640625,1.060546875,0.005859375,4219858106,5
-0.103515625,1.099609375,-0.00390625,4219858106,5
0.537109375,0.30859375,0.962890625,4219858106,5
0.365234375,0.3828125,-0.0546875,4219858106,5
0.39453125,0.4140625,-0.0390625,4219858106,5
0.40234375,0.4609375,-0.0390625,4219858106,5
0.408203125,0.50390625,-0.080078125,4219858106,5
-0.1875,0.83203125,-0.1015625,4219858106,5
-0.197265625,0.87890625,0.013671875,4219858106,5
-0.064453125,1.021484375,-0.00390625,4219858106,5
-0.06640625,1.060546875,0.0546875,4219858106,5
-0.103515625,1.09765625,0.060546875,4219858106,5
-0.1796875,1.12890625,0.08203125,4219858106,5
0.556640625,0.0,-1.166015625,4219858106,5
-0.478515625,0.888671875,-0.162109375,4219858106,5
-0.322265625,1.09765625,-0.060546875,4219858106,5
-0.37109375,1.123046875,-0.091796875,4219858106,5
0.345703125,0.0,-1.22265625,4219858106,5
0.65234375,0.0,0.521484375,4219858106,5
-0.1171875,0.37890625,0.853515625,4219858106,5
-0.091796875,0.568359375,0.794921875,4219858106,5
-0.501953125,1.02734375,-0.072265625,4219858106,5
-0.337890625,0.767578125,-0.32421875,4219858106,5
-0.146484375,0.21484375,-0.904296875,4219858106,5
-0.123046875,0.33984375,0.912109375,4219858106,5
-0.1796875,1.130859375,-0.0078125,4219858106,5
0.537109375,0.0,1.068359375,4219858106,5
-0.255859375,0.77734375,-0.0234375,4270149641,6
-0.294921875,0.796875,0.119140625,4270149641,6
-0.365234375,0.79296875,0.21875,4270149641,6
-0.3828125,0.810546875,0.287109375,4270149641,6
-0.3984375,0.802734375,0.40234375,4270149641,6
-0.16015625,0.998046875,0.15234375,4270149641,6
-0.099609375,1.001953125,0.341796875,4270149641,6
0.0,0.9765625,0.517578125,4270149641,6
0.609375,0.90625,0.345703125,4270149641,6
0.072265625,2.275390625,0.263671875,4270149641,6
0.072265625,2.3125,0.291015625,4270149641,6
0.365234375,0.373046875,0.09765625,4270149641,6
0.357421875,0.4296875,0.12109375,4270149641,6
0.556640625,0.0,0.529296875,4270149641,6
0.3046875,0.59765625,0.181640625,4270149641,6
0.322265625,0.619140625,0.232421875,4270149641,6
-0.2421875,0.822265625,0.044921875,4270149641,6
-0.28125,0.82421875,0.2265625,4270149641,6
-0.263671875,0.83203125,0.349609375,4270149641,6
-0.18359375,0.87890625,0.3984375,4270149641,6
-0.19140625,0.9140625,0.416015625,4270149641,6
0.033203125,0.11328125,-1.056640625,4270149641,6
0.0,0.384765625,-1.03515625,4270149641,6
-0.080078125,2.53125,0.119140625,4270149641,6
1.2265625,0.0,-2.609375,4270149641,6
1.1640625,0.0,-2.65234375,4270149641,6
-0.294921875,0.806640625,-0.025390625,4270149641,6
-0.083984375,0.888671875,-0.111328125,4270149641,6
-0.087890625,0.9375,0.001953125,4270149641,6
-0.091796875,0.9765625,0.052734375,4270149641,6
0.0,0.99609375,-0.23046875,4270149641,6
-0.033203125,1.0234375,0.287109375,4270149641,6
-0.03515625,1.05859375,0.310546875,4270149641,6
0.0,1.09765625,0.330078125,4270149641,6
0.0,1.134765625,0.34765625,4270149641,6
0.1640625,2.5234375,-0.67578125,4270149641,6
1.1640625,0.0,-2.544921875,4270149641,6
-0.1875,0.833984375,0.07421875,4270149641,6
-0.140625,0.865234375,0.201171875,4270149641,6
-0.1171875,0.916015625,0.181640625,4270149641,6
-0.091796875,0.966796875,0.1484375,4270149641,6
-0.095703125,1.01171875,0.111328125,4270149641,6
-0.06640625,1.017578125,0.30078125,4270149641,6
-0.03515625,1.08203125,0.21484375,4270149641,6
0.0,1.13671875,0.1484375,4270149641,6
0.0,1.171875,0.1796875,4270149641,6
-0.083984375,0.798828125,0.404296875,4270149641,6
-0.087890625,0.89453125,0.279296875,4270149641,6
-0.060546875,0.970703125,0.12890625,4270149641,6
-0.064453125,1.01953125,-0.056640625,4270149641,6
0.431640625,0.234375,0.943359375,4270149641,6
0.0,1.048828125,0.345703125,4270149641,6
0.0,1.134765625,0.15625,4270149641,6
-0.11328125,0.87109375,0.1953125,4270149641,6
-0.087890625,0.916015625,0.197265625,4270149641,6
-0.060546875,0.97265625,0.111328125,4270149641,6
-0.064453125,1.01953125,0.05859375,4270149641,6
-0.099609375,1.05078125,0.13671875,4270149641,6
-0.068359375,1.09765625,0.103515625,4270149641,6
-0.072265625,1.142578125,0.029296875,4270149641,6
0.16796875,0.845703125,-0.255859375,4270149641,6
-0.087890625,0.888671875,0.296875,4270149641,6
-0.091796875,0.875,0.4375,4270149641,6
-0.095703125,0.953125,0.359375,4270149641,6
-0.21484375,0.42578125,0.119140625,1539611833,295
-0.283203125,0.390625,0.224609375,1539611833,295
-0.125,0.27734375,-0.484375,1539611833,295
-0.171875,0.29296875,-0.509765625,1539611833,295
-0.224609375,0.0,-0.64453125,1539611833,295
-0.19921875,0.421875,0.150390625,1539611833,295
-0.283203125,0.37109375,0.25390625,1539611833,295
-0.107421875,0.35546875,-0.435546875,1539611833,295
-0.154296875,0.380859375,-0.45703125,1539611833,295
-0.24609375,0.0,-0.65234375,1539611833,295
-0.21484375,0.3984375,0.19140625,1539611833,295
-0.099609375,0.353515625,-0.384765625,1539611833,295
-0.125,0.390625,-0.400390625,1539611833,295
-0.171875,0.41015625,-0.421875,1539611833,295
-0.21484375,0.3984375,0.189453125,1539611833,295
0.1171875,0.517578125,-0.044921875,1539611833,295
0.125,0.443359375,0.33984375,1539611833,295
-0.23828125,1.23828125,0.140625,1539611833,295
0.0,1.349609375,-0.044921875,1539611833,295
0.087890625,1.3828125,-0.130859375,1539611833,295
0.3046875,1.33203125,-0.26171875,1539611833,295
-0.19921875,0.443359375,0.068359375,1539611833,295
0.1171875,0.5078125,0.109375,1539611833,295
0.125,0.5078125,0.232421875,1539611833,295
-0.134765625,0.044921875,-0.59765625,1539611833,295
-0.19921875,0.4375,0.1015625,1539611833,295
0.1171875,0.498046875,0.14453125,1539611833,295
0.125,0.4921875,0.265625,1539611833,295
-0.134765625,0.232421875,-0.55078125,1539611833,295
0.4453125,0.0,-0.224609375,1539611833,295
-0.083984375,0.27734375,-0.4453125,1539611833,295
-0.322265625,0.435546875,0.185546875,1539611833,295
-0.365234375,0.451171875,0.201171875,1539611833,295
-0.44921875,0.466796875,0.087890625,1539611833,295
0.337890625,0.35546875,0.01171875,1539611833,295
0.46484375,0.119140625,-0.228515625,1539611833,295
-0.322265625,0.419921875,0.220703125,1539611833,295
-0.365234375,0.42578125,0.248046875,1539611833,295
-0.4296875,0.458984375,0.18359375,1539611833,295
-0.060546875,0.275390625,-0.400390625,1539611833,295
-0.283203125,0.34765625,0.287109375,1539611833,295
-0.322265625,0.390625,0.267578125,1539611833,295
-0.3828125,0.390625,0.27734375,1539611833,295
0.306640625,0.380859375,-0.04296875,1539611833,295
0.44921875,0.119140625,0.259765625,1539611833,295
-0.125,0.42578125,-0.36328125,1539611833,295
1.09765625,0.779296875,0.107421875,1539611833,295
1.173828125,0.669921875,0.330078125,1539611833,295
0.337890625,0.34375,-0.095703125,1539611833,295
0.482421875,0.224609375,-0.005859375,1539611833,295
-0.107421875,0.0,-0.5703125,1539611833,295
-0.345703125,0.49609375,1.103515625,1539611833,295
2.513671875,1.0,32.001953125,1539611833,295
0.5,0.0,-39.0,1539611833,295
0.5,0.0,0.5,1539611833,295
32.0,4.5,6.0,1539611833,295
-0.123046875,0.474609375,0.02734375,917980929,2
-0.1328125,0.49609375,0.13671875,917980929,2
-0.142578125,0.53125,0.16015625,917980929,2
-0.115234375,0.560546875,0.21875,917980929,2
-0.01953125,0.50390625,-0.41796875,917980929,2
-0.697265625,0.4921875,-0.08984375,917980929,2
-0.73046875,0.521484375,-0.052734375,917980929,2
-0.763671875,0.548828125,-0.0234375,917980929,2
-0.123046875,0.47265625,0.04296875,917980929,2
-0.1328125,0.48828125,0.1640625,917980929,2
-0.142578125,0.521484375,0.1875,917980929,2
-0.134765625,0.552734375,0.23046875,917980929,2
-0.01953125,0.560546875,-0.3359375,917980929,2
-0.697265625,0.5,-0.041015625,917980929,2
-0.703125,0.5625,0.013671875,917980929,2
-0.734375,0.583984375,0.0546875,917980929,2
-0.107421875,0.478515625,-0.0078125,917980929,2
-0.150390625,0.490234375,0.142578125,917980929,2
-0.16015625,0.5078125,0.20703125,917980929,2
-0.154296875,0.546875,0.232421875,917980929,2
-0.01953125,0.619140625,-0.212890625,917980929,2
-0.73046875,0.517578125,0.087890625,917980929,2
-0.076171875,0.47265625,0.10546875,917980929,2
-0.083984375,0.5078125,0.13671875,917980929,2
-0.107421875,0.533203125,0.1796875,917980929,2
-0.060546875,0.46484375,0.146484375,917980929,2
-0.06640625,0.490234375,0.197265625,917980929,2
-0.478515625,0.505859375,-0.0078125,917980929,2
-0.505859375,0.533203125,-0.037109375,917980929,2
-0.55859375,0.53125,-0.095703125,917980929,2
-0.390625,0.0,-0.6796875,917980929,2
-0.4375,0.0,-0.734375,917980929,2
-0.4375,0.0,0.7578125,917980929,2
-0.412109375,0.0,-0.654296875,917980929,2
-0.4375,0.0,-0.72265625,917980929,2
-0.4375,0.0,0.611328125,917980929,2
-0.091796875,0.482421875,0.0234375,917980929,2
-0.099609375,0.521484375,0.025390625,917980929,2
-0.076171875,0.484375,0.037109375,917980929,2
-0.099609375,0.521484375,0.04296875,917980929,2
-0.33984375,0.33984375,0.3125,917980929,2
-0.365234375,0.484375,-0.09765625,917980929,2
-0.408203125,0.509765625,-0.033203125,917980929,2
0.529296875,0.509765625,-0.052734375,917980929,2
-0.03125,0.490234375,0.00390625,917980929,2
-0.083984375,0.5234375,0.044921875,917980929,2
-0.33984375,0.3671875,0.27734375,917980929,2
-0.3828125,0.474609375,-0.05859375,917980929,2
-0.408203125,0.51171875,0.01171875,917980929,2
0.529296875,0.51171875,0.01171875,917980929,2
0.046875,0.46484375,0.15234375,917980929,2
-0.154296875,0.56640625,0.1796875,917980929,2
0.03125,0.451171875,0.19140625,917980929,2
-0.40234375,0.228515625,-0.40234375,917980929,2
-0.265625,0.556640625,-0.21875,917980929,2
0.033203125,0.4609375,0.265625,917980929,2
-0.40234375,0.2734375,-0.373046875,917980929,2
-0.65234375,0.2421875,-0.009765625,917980929,2
-0.689453125,0.255859375,-0.0234375,917980929,2
-0.65234375,0.236328125,-0.048828125,917980929,2
-0.125,0.55859375,0.009765625,917980929,2
-0.19921875,0.3515625,0.279296875,917980929,2
-0.283203125,0.314453125,0.322265625,917980929,2
-0.107421875,0.5625,0.0234375,917980929,2
-0.076171875,0.462890625,0.146484375,967856468,3
-0.083984375,0.48828125,0.193359375,967856468,3
-0.322265625,0.47265625,0.0078125,967856468,3
-0.365234375,0.48046875,0.11328125,967856468,3
-0.408203125,0.509765625,0.017578125,967856468,3
-0.703125,0.5625,-0.005859375,967856468,3
-0.26171875,0.416015625,-0.0078125,967856468,3
-0.1171875,0.431640625,0.2890625,967856468,3
-0.322265625,0.47265625,0.041015625,967856468,3
-0.3828125,0.451171875,0.158203125,967856468,3
-0.388671875,0.521484375,0.07421875,967856468,3
-0.412109375,0.556640625,0.060546875,967856468,3
-0.703125,0.560546875,0.046875,967856468,3
-0.734375,0.583984375,0.0703125,967856468,3
-0.107421875,0.310546875,0.36328125,967856468,3
-0.1171875,0.408203125,0.322265625,967856468,3
-0.33984375,0.453125,0.080078125,967856468,3
-0.3828125,0.4375,0.1953125,967856468,3
-0.408203125,0.5,0.10546875,967856468,3
-0.1171875,0.38671875,0.34765625,967856468,3
-0.33984375,0.447265625,0.11328125,967856468,3
-0.65625,0.88671875,-0.060546875,967856468,3
-0.716796875,0.892578125,-0.041015625,967856468,3
-0.7421875,0.92578125,-0.03515625,967856468,3
-0.767578125,0.95703125,0.015625,967856468,3
-0.689453125,0.861328125,-0.0546875,967856468,3
-0.716796875,0.89453125,-0.0078125,967856468,3
-0.779296875,0.890625,0.091796875,967856468,3
-0.767578125,0.947265625,0.13671875,967856468,3
-0.486328125,0.58984375,-0.142578125,967856468,3
-0.537109375,0.60546875,-0.1171875,967856468,3
-0.787109375,0.74609375,-0.3671875,967856468,3
-0.779296875,0.796875,-0.408203125,967856468,3
-0.787109375,0.763671875,-0.330078125,967856468,3
-0.779296875,0.84765625,-0.287109375,967856468,3
-0.8828125,0.794921875,-0.30859375,967856468,3
-0.046875,0.48828125,0.02734375,967856468,3
-0.06640625,0.52734375,0.0,967856468,3
-0.3046875,0.46484375,-0.138671875,967856468,3
-0.060546875,0.484375,0.048828125,967856468,3
-0.06640625,0.52734375,0.02734375,967856468,3
-0.3046875,0.478515625,-0.083984375,967856468,3
-0.345703125,0.5078125,-0.005859375,967856468,3
-0.298828125,0.435546875,-0.0625,967856468,3
-0.125,0.447265625,0.3359375,967856468,3
-0.134765625,0.5546875,-0.224609375,967856468,3
-0.107421875,0.337890625,0.337890625,967856468,3
-0.298828125,0.439453125,-0.0078125,967856468,3
-0.107421875,0.47265625,0.3046875,967856468,3
-0.134765625,0.572265625,-0.173828125,967856468,3
0.5,0.466796875,-0.123046875,967856468,3
-0.275390625,0.40625,0.017578125,967856468,3
-0.298828125,0.439453125,0.029296875,967856468,3
-0.125,0.388671875,0.40234375,967856468,3
-0.154296875,0.5625,-0.193359375,967856468,3
-0.298828125,0.43359375,0.0703125,967856468,3
-0.125,0.34375,0.44140625,967856468,3
-0.265625,0.380859375,-0.259765625,967856468,3
-0.107421875,0.5625,0.0078125,967856468,3
-0.283203125,0.43359375,-0.123046875,967856468,3
-0.107421875,0.55859375,0.06640625,967856468,3
-0.095703125,0.60546875,-0.03125,967856468,3
-0.060546875,0.486328125,-0.033203125,1018251002,4
-0.06640625,0.52734375,-0.03515625,1018251002,4
-0.072265625,0.56640625,-0.033203125,1018251002,4
-0.095703125,0.60546875,-0.021484375,1018251002,4
-0.408203125,0.509765625,-0.01953125,1018251002,4
0.564453125,0.396484375,-0.08203125,1018251002,4
0.59765625,0.427734375,-0.044921875,1018251002,4
-0.734375,0.5546875,0.19140625,1018251002,4
-0.703125,0.0,0.939453125,1018251002,4
-0.046875,0.48828125,0.001953125,1018251002,4
-0.06640625,0.52734375,-0.01953125,1018251002,4
-0.072265625,0.56640625,-0.033203125,1018251002,4
-0.076171875,0.607421875,-0.021484375,1018251002,4
-0.08203125,0.6484375,-0.037109375,1018251002,4
0.564453125,0.392578125,-0.099609375,1018251002,4
0.59765625,0.427734375,-0.04296875,1018251002,4
0.607421875,0.484375,-0.005859375,1018251002,4
-0.646484375,0.6796875,0.076171875,1018251002,4
-0.67578125,0.70703125,0.0859375,1018251002,4
-0.703125,0.724609375,0.16015625,1018251002,4
1.28125,0.599609375,-1.955078125,1018251002,4
-0.076171875,0.478515625,0.08203125,1018251002,4
-0.06640625,0.521484375,0.080078125,1018251002,4
-0.072265625,0.568359375,0.01953125,1018251002,4
-0.076171875,0.609375,-0.005859375,1018251002,4
-0.041015625,0.646484375,0.095703125,1018251002,4
-0.412109375,0.544921875,0.125,1018251002,4
0.59765625,0.427734375,-0.046875,1018251002,4
-0.67578125,0.703125,0.1171875,1018251002,4
-0.734375,0.6953125,0.150390625,1018251002,4
-0.107421875,0.4765625,0.0546875,1018251002,4
-0.1171875,0.513671875,0.078125,1018251002,4
-0.125,0.55078125,0.091796875,1018251002,4
-0.115234375,0.595703125,0.095703125,1018251002,4
-0.408203125,0.48046875,0.173828125,1018251002,4
-0.435546875,0.505859375,0.1953125,1018251002,4
-0.123046875,0.462890625,0.107421875,1018251002,4
-0.1328125,0.498046875,0.12890625,1018251002,4
-0.142578125,0.533203125,0.1484375,1018251002,4
-0.154296875,0.556640625,0.205078125,1018251002,4
-0.34765625,0.548828125,0.08203125,1018251002,4
-0.369140625,0.576171875,0.123046875,1018251002,4
-0.138671875,0.453125,0.130859375,1018251002,4
-0.150390625,0.486328125,0.158203125,1018251002,4
-0.142578125,0.521484375,0.189453125,1018251002,4
-0.154296875,0.548828125,0.228515625,1018251002,4
-0.3671875,0.521484375,0.140625,1018251002,4
-0.369140625,0.548828125,0.21484375,1018251002,4
-0.138671875,0.46484375,0.07421875,1018251002,4
-0.150390625,0.494140625,0.12890625,1018251002,4
-0.16015625,0.51953125,0.181640625,1018251002,4
-0.134765625,0.548828125,0.23828125,1018251002,4
-0.34765625,0.546875,0.0859375,1018251002,4
-0.2109375,0.373046875,0.138671875,1018251002,4
-0.091796875,0.439453125,0.197265625,1018251002,4
-0.1328125,0.490234375,0.158203125,1018251002,4
-0.16015625,0.51953125,0.177734375,1018251002,4
0.0390625,0.49609375,-0.359375,1018251002,4
-0.16796875,0.337890625,-0.24609375,1018251002,4
0.0,0.392578125,-0.294921875,1018251002,4
-0.033203125,0.41015625,-0.337890625,1018251002,4
-0.072265625,0.46484375,-0.328125,1018251002,4
-0.154296875,0.583984375,-0.109375,1018251002,4
-0.142578125,0.74609375,-0.857421875,1018251002,4
-0.091796875,0.478515625,-0.05859375,1068256399,5
-0.1171875,0.517578125,-0.03515625,1068256399,5
-0.107421875,0.5625,-0.0078125,1068256399,5
-0.134765625,0.599609375,0.00390625,1068256399,5
-0.287109375,0.587890625,-0.01171875,1068256399,5
-0.369140625,0.5859375,0.0625,1068256399,5
-0.390625,0.62109375,0.048828125,1068256399,5
-0.09765625,0.76953125,-0.041015625,1068256399,5
-0.646484375,0.6796875,0.06640625,1068256399,5
-0.091796875,0.48046875,-0.029296875,1068256399,5
-0.1171875,0.51953125,-0.009765625,1068256399,5
-0.142578125,0.5546875,0.01171875,1068256399,5
-0.19140625,0.58203125,0.029296875,1068256399,5
-0.306640625,0.578125,0.02734375,1068256399,5
-0.390625,0.572265625,0.05078125,1068256399,5
-0.390625,0.62109375,0.064453125,1068256399,5
-0.412109375,0.64453125,0.138671875,1068256399,5
-0.091796875,0.478515625,0.056640625,1068256399,5
-0.232421875,0.470703125,0.0859375,1068256399,5
-0.232421875,0.521484375,0.048828125,1068256399,5
-0.25,0.55859375,0.04296875,1068256399,5
-0.328125,0.56640625,0.0390625,1068256399,5
-0.390625,0.56640625,0.095703125,1068256399,5
-0.4140625,0.591796875,0.138671875,1068256399,5
-0.412109375,0.58984375,0.29296875,1068256399,5
-0.091796875,0.4765625,0.078125,1068256399,5
-0.1171875,0.513671875,0.080078125,1068256399,5
-0.125,0.55078125,0.091796875,1068256399,5
-0.134765625,0.587890625,0.11328125,1068256399,5
-0.142578125,0.6015625,0.212890625,1068256399,5
-0.390625,0.564453125,0.10546875,1068256399,5
-0.4375,0.5703125,0.158203125,1068256399,5
-0.107421875,0.470703125,0.09375,1068256399,5
-0.1171875,0.5078125,0.103515625,1068256399,5
-0.125,0.546875,0.115234375,1068256399,5
-0.154296875,0.580078125,0.130859375,1068256399,5
-0.205078125,0.59375,0.18359375,1068256399,5
-0.412109375,0.5390625,0.146484375,1068256399,5
-0.4375,0.552734375,0.2109375,1068256399,5
-0.107421875,0.46484375,0.119140625,1068256399,5
-0.1171875,0.50390625,0.123046875,1068256399,5
-0.142578125,0.537109375,0.13671875,1068256399,5
-0.23046875,0.537109375,0.189453125,1068256399,5
-0.3671875,0.537109375,0.072265625,1068256399,5
-0.435546875,0.54296875,-0.013671875,1068256399,5
-0.298828125,0.55859375,0.375,1068256399,5
-0.107421875,0.4609375,0.12890625,1068256399,5
-0.033203125,0.525390625,0.072265625,1068256399,5
-0.1796875,0.439453125,0.3203125,1068256399,5
-0.19140625,0.501953125,0.294921875,1068256399,5
-0.4296875,0.494140625,-0.015625,1068256399,5
-0.478515625,0.50390625,0.021484375,1068256399,5
-0.275390625,0.392578125,0.55859375,1068256399,5
-0.076171875,0.470703125,0.115234375,1068256399,5
-0.05078125,0.521484375,0.087890625,1068256399,5
-0.017578125,0.572265625,0.01953125,1068256399,5
-0.2109375,0.486328125,0.310546875,1068256399,5
-0.224609375,0.541015625,0.29296875,1068256399,5
-0.23828125,0.548828125,0.353515625,1068256399,5
-0.298828125,0.412109375,0.53125,1068256399,5
-0.015625,0.333984375,-0.359375,1068256399,5
0.017578125,0.32421875,-0.421875,1068256399,5
0.03515625,0.373046875,-0.43359375,1068256399,5
-0.154296875,0.552734375,-0.21875,1068256399,5
-0.099609375,0.517578125,0.0703125,1118256543,6
-0.125,0.5546875,0.064453125,1118256543,6
-0.134765625,0.595703125,0.06640625,1118256543,6
-0.142578125,0.634765625,0.06640625,1118256543,6
-0.087890625,0.689453125,-0.03125,1118256543,6
-0.046875,0.73046875,-0.087890625,1118256543,6
-0.4609375,0.58203125,0.2265625,1118256543,6
-0.099609375,0.509765625,0.1171875,1118256543,6
-0.08984375,0.5546875,0.109375,1118256543,6
-0.115234375,0.595703125,0.091796875,1118256543,6
-0.1015625,0.642578125,0.06640625,1118256543,6
-0.04296875,0.693359375,0.017578125,1118256543,6
-0.0234375,0.736328125,0.005859375,1118256543,6
-0.048828125,0.775390625,0.021484375,1118256543,6
-0.06640625,0.490234375,0.1953125,1118256543,6
-0.107421875,0.544921875,0.138671875,1118256543,6
-0.115234375,0.58984375,0.12109375,1118256543,6
-0.08203125,0.63671875,0.12890625,1118256543,6
-0.04296875,0.681640625,0.134765625,1118256543,6
-0.0234375,0.7265625,0.119140625,1118256543,6
-0.048828125,0.767578125,0.10546875,1118256543,6
-0.05078125,0.486328125,0.208984375,1118256543,6
-0.03515625,0.544921875,0.171875,1118256543,6
-0.01953125,0.583984375,0.189453125,1118256543,6
-0.01953125,0.607421875,0.2421875,1118256543,6
-0.04296875,0.626953125,0.298828125,1118256543,6
-0.115234375,0.658203125,0.30859375,1118256543,6
-0.365234375,0.658203125,0.1953125,1118256543,6
0.958984375,0.212890625,0.28515625,1118256543,6
0.0,0.533203125,0.20703125,1118256543,6
-0.01953125,0.576171875,0.20703125,1118256543,6
-0.01953125,0.603515625,0.25,1118256543,6
-0.23828125,0.6015625,0.255859375,1118256543,6
-0.23046875,0.578125,0.39453125,1118256543,6
-0.267578125,0.58984375,0.4296875,1118256543,6
-0.052734375,0.5390625,0.185546875,1118256543,6
-0.01953125,0.59765625,0.134765625,1118256543,6
0.0,0.626953125,0.185546875,1118256543,6
0.0,0.66015625,0.21484375,1118256543,6
0.0,0.70703125,0.20703125,1118256543,6
0.01953125,0.580078125,0.197265625,1118256543,6
-0.041015625,0.57421875,0.310546875,1118256543,6
-0.04296875,0.595703125,0.35546875,1118256543,6
-0.046875,0.603515625,0.419921875,1118256543,6
-0.33984375,0.6953125,-0.068359375,1118256543,6
-0.408203125,0.509765625,0.02734375,1118256543,6
-0.435546875,0.54296875,0.015625,1118256543,6
-0.529296875,0.439453125,0.26171875,1118256543,6
-0.33984375,0.69921875,-0.021484375,1118256543,6
-0.4609375,0.669921875,-0.09375,1118256543,6
-0.3828125,0.4765625,0.048828125,1118256543,6
-0.408203125,0.509765625,0.02734375,1118256543,6
-0.435546875,0.54296875,0.015625,1118256543,6
-0.482421875,0.5546875,-0.04296875,1118256543,6
-0.4375,0.62109375,-0.166015625,1118256543,6
-0.142578125,0.55078125,-0.0625,1118256543,6
-0.365234375,0.4921875,0.02734375,1118256543,6
-0.388671875,0.525390625,0.04296875,1118256543,6
-0.412109375,0.55859375,0.033203125,1118256543,6
-0.4375,0.591796875,0.015625,1118256543,6
-0.486328125,0.607421875,0.001953125,1118256543,6
-0.537109375,0.6171875,0.015625,1118256543,6
-0.150390625,0.509765625,-0.02734375,1118256543,6
-0.16015625,0.548828125,-0.041015625,1118256543,6
0.734375,1.42578125,0.4921875,3412180382,2
0.751953125,1.48046875,0.439453125,3412180382,2
0.787109375,1.435546875,0.369140625,3412180382,2
0.751953125,1.5078125,0.337890625,3412180382,2
0.76953125,1.5546875,0.2890625,3412180382,2
0.767578125,1.310546875,0.609375,3462541504,3
0.787109375,1.3828125,0.53125,3462541504,3
0.8046875,1.4140625,0.55078125,3462541504,3
0.76953125,1.46875,0.583984375,3462541504,3
0.73046875,1.537109375,0.5859375,3462541504,3
0.486328125,1.474609375,-0.0703125,3462541504,3
0.548828125,1.498046875,0.01171875,3462541504,3
0.5625,1.521484375,0.220703125,3462541504,3
0.734375,1.44140625,0.443359375,3462541504,3
0.751953125,1.4609375,0.5,3462541504,3
0.71484375,1.517578125,0.52734375,3462541504,3
0.787109375,1.53125,0.52734375,3462541504,3
0.787109375,1.451171875,0.302734375,3462541504,3
0.859375,1.447265625,0.341796875,3462541504,3
0.82421875,1.505859375,0.37890625,3462541504,3
0.787109375,1.5703125,0.388671875,3462541504,3
0.548828125,1.484375,-0.203125,3462541504,3
0.716796875,1.4375,0.314453125,3462541504,3
0.787109375,1.43359375,0.376953125,3462541504,3
0.8046875,1.46484375,0.39453125,3462541504,3
0.76953125,1.5234375,0.427734375,3462541504,3
0.84375,1.515625,0.482421875,3462541504,3
0.86328125,1.55078125,0.4921875,3462541504,3
0.11328125,1.412109375,-1.111328125,3462541504,3
0.58203125,1.44140625,-0.01953125,3462541504,3
0.1640625,1.13671875,-1.33203125,3462541504,3
0.16796875,1.091796875,-1.421875,3462541504,3
0.16796875,1.1953125,-1.3359375,3462541504,3
0.171875,0.88671875,-1.603515625,3462541504,3
0.681640625,1.501953125,0.306640625,3512291954,4
0.697265625,1.51953125,0.390625,3512291954,4
0.322265625,1.642578125,0.384765625,3512291954,4
0.73046875,1.60546875,0.35546875,3512291954,4
0.748046875,1.6328125,0.40625,3512291954,4
0.5625,1.53515625,0.056640625,3512291954,4
0.5234375,1.58984375,0.095703125,3512291954,4
0.482421875,1.6484375,0.01953125,3512291954,4
0.76953125,1.54296875,0.349609375,3512291954,4
0.787109375,1.599609375,0.244140625,3512291954,4
0.8046875,1.634765625,0.255859375,3512291954,4
0.912109375,1.1171875,0.93359375,3512291954,4
0.6640625,1.494140625,-0.064453125,3562506172,5
0.576171875,1.56640625,0.1640625,3562506172,5
0.58984375,1.5703125,0.37109375,3562506172,5
0.60546875,1.59765625,0.41796875,3562506172,5
0.498046875,1.50390625,-0.185546875,3562506172,5
0.408203125,1.482421875,-0.560546875,3562506172,5
0.837890625,1.3984375,0.392578125,3562506172,5
0.859375,1.388671875,0.533203125,3562506172,5
0.494140625,1.685546875,0.099609375,3562506172,5
0.73046875,1.619140625,0.287109375,3562506172,5
0.748046875,1.630859375,0.412109375,3562506172,5
0.419921875,1.59765625,-0.29296875,3562506172,5
0.537109375,1.6328125,0.005859375,3562506172,5
0.60546875,1.6484375,0.109375,3562506172,5
0.548828125,1.484375,-0.19921875,3562506172,5
0.4609375,1.525390625,-0.375,3562506172,5
0.419921875,1.609375,-0.21875,3562506172,5
0.537109375,1.630859375,0.08203125,3562506172,5
0.548828125,1.662109375,0.169921875,3562506172,5
0.73046875,1.6328125,0.193359375,3562506172,5
0.86328125,1.609375,0.236328125,3562506172,5
0.26171875,1.455078125,-0.79296875,3562506172,5
0.322265625,1.625,-0.453125,3562506172,5
0.115234375,0.529296875,-1.759765625,3562506172,5
0.53515625,1.45703125,-0.072265625,3612282248,6
0.548828125,1.490234375,-0.158203125,3612282248,6
0.62890625,1.443359375,0.576171875,3612282248,6
0.8046875,1.486328125,0.306640625,3612282248,6
0.87890625,1.51171875,0.1875,3612282248,6
0.58203125,1.421875,-0.228515625,3612282248,6
0.59765625,1.4375,-0.34765625,3612282248,6
0.62890625,1.517578125,0.341796875,3612282248,6
0.8046875,1.513671875,0.1015625,3612282248,6
0.87890625,1.521484375,-0.078125,3612282248,6
0.220703125,0.603515625,1.63671875,3612282248,6
0.275390625,1.044921875,1.388671875,3612282248,6
-0.796875,0.474609375,-0.318359375,4190118144,2
-0.86328125,0.482421875,-0.259765625,4190118144,2
-0.896484375,0.4921875,-0.291015625,4190118144,2
-0.966796875,0.37109375,-0.384765625,4190118144,2
-0.828125,0.517578125,-0.095703125,4190118144,2
-0.86328125,0.544921875,-0.05859375,4190118144,2
-0.896484375,0.5703125,-0.029296875,4190118144,2
-0.931640625,0.591796875,0.044921875,4190118144,2
-0.9296875,0.650390625,0.1484375,4190118144,2
-0.830078125,0.587890625,0.099609375,4190118144,2
-0.896484375,0.5703125,0.02734375,4190118144,2
-0.931640625,0.591796875,-0.0078125,4190118144,2
-0.9296875,0.66796875,0.01953125,4190118144,2
-1.0,0.6328125,0.064453125,4190118144,2
-0.86328125,0.548828125,-0.029296875,4190118144,2
-0.896484375,0.5703125,0.009765625,4190118144,2
-0.931640625,0.58984375,0.052734375,4190118144,2
-0.966796875,0.609375,0.076171875,4190118144,2
-1.037109375,0.5703125,0.0625,4190118144,2
-0.89453125,0.494140625,0.037109375,4190118144,2
-0.896484375,0.55078125,0.15234375,4190118144,2
-0.931640625,0.556640625,0.205078125,4190118144,2
-0.966796875,0.564453125,0.244140625,4190118144,2
0.0,3.9140625,-7.37109375,4190118144,2
-0.26171875,3.662109375,-7.5390625,4190118144,2
-0.263671875,3.068359375,-7.84375,4190118144,2
-0.896484375,0.5625,-0.09765625,4190118144,2
-0.931640625,0.591796875,0.013671875,4190118144,2
-0.966796875,0.578125,0.208984375,4190118144,2
0.0,3.232421875,-7.693359375,4190118144,2
-0.26171875,3.16796875,-7.759765625,4190118144,2
-0.263671875,2.58984375,-8.013671875,4190118144,2
-0.263671875,0.736328125,-8.431640625,4190118144,2
-0.9296875,0.513671875,0.04296875,4190118144,2
-0.931640625,0.583984375,0.1015625,4190118144,2
0.0,2.66796875,-7.90625,4190118144,2
0.0,3.064453125,-7.806640625,4190118144,2
-0.263671875,2.353515625,-8.087890625,4190118144,2
-0.263671875,0.13671875,-8.462890625,4190118144,2
-0.26171875,3.44921875,-7.59375,4190118144,2
-0.26171875,3.876953125,-7.431640625,4190118144,2
-0.263671875,3.638671875,-7.595703125,4190118144,2
-0.263671875,1.955078125,-8.234375,4190118144,2
-2.98828125,0.0,-4.361328125,4190118144,2
-3.01171875,0.0,-4.56640625,4190118144,2
-2.359375,2.81640625,-7.5390625,4190118144,2
-0.89453125,0.380859375,-0.31640625,4190118144,2
-0.9296875,0.40234375,-0.3203125,4190118144,2
-0.966796875,0.423828125,-0.326171875,4190118144,2
-0.89453125,0.32421875,-0.375,4190118144,2
-0.9296875,0.359375,-0.3671875,4190118144,2
-1.0,0.2734375,-0.37890625,4190118144,2
-0.46484375,0.19921875,-0.935546875,4190118144,2
-0.501953125,0.0,-1.072265625,4190118144,2
-3.650390625,7.48046875,0.6015625,4190118144,2
-3.40625,7.626953125,0.734375,4190118144,2
-3.423828125,7.673828125,0.646484375,4190118144,2
-3.390625,7.60546875,0.556640625,4190118144,2
-3.40625,7.62890625,0.720703125,4190118144,2
-3.423828125,7.6640625,0.734375,4190118144,2
-3.439453125,7.712890625,0.607421875,4190118144,2
-3.390625,7.61328125,0.412109375,4190118144,2
-3.40625,7.638671875,0.61328125,4190118144,2
-3.423828125,7.67578125,0.607421875,4190118144,2
-0.958984375,0.353515625,0.041015625,4239678947,3
-0.962890625,0.43359375,0.115234375,4239678947,3
-0.966796875,0.51171875,0.15625,4239678947,3
-1.001953125,0.466796875,0.298828125,4239678947,3
-0.89453125,0.494140625,0.009765625,4239678947,3
-0.896484375,0.56640625,-0.07421875,4239678947,3
-0.896484375,0.630859375,-0.126953125,4239678947,3
-1.0,0.625,-0.12109375,4239678947,3
5.259765625,0.0,7.189453125,4239678947,3
-1.533203125,4.833984375,6.419921875,4239678947,3
-1.01171875,2.3828125,3.830078125,4239678947,3
-0.875,2.3203125,3.94921875,4239678947,3
-0.896484375,0.55078125,0.1484375,4239678947,3
-0.931640625,0.57421875,0.146484375,4239678947,3
-0.966796875,0.591796875,0.166015625,4239678947,3
-0.86328125,0.5078125,0.2109375,4239678947,3
-0.896484375,0.5078125,0.259765625,4239678947,3
-0.931640625,0.525390625,0.2734375,4239678947,3
-1.001953125,0.474609375,0.287109375,4239678947,3
-0.890625,0.4140625,-0.01171875,4239678947,3
-0.89453125,0.462890625,0.17578125,4239678947,3
-0.896484375,0.43359375,0.37109375,4239678947,3
-0.931640625,0.44140625,0.396484375,4239678947,3
-0.9296875,0.66015625,0.1015625,4239678947,3
-0.919921875,0.333984375,-0.0703125,4239678947,3
-0.958984375,0.3359375,0.119140625,4239678947,3
-0.9296875,0.455078125,0.240234375,4239678947,3
-0.966796875,0.5078125,0.166015625,4239678947,3
-0.966796875,0.59375,0.162109375,4239678947,3
-0.962890625,0.63671875,0.26953125,4239678947,3
-0.416015625,0.0,-0.9609375,4239678947,3
