2.552734375,-0.482421875,0.126953125,2100410150,75
2.35546875,-0.4140625,0.12890625,2100410150,75
2.384765625,-0.041015625,0.130859375,2100410150,75
2.46484375,0.44140625,0.1328125,2100410150,75
2.5234375,0.306640625,0.123046875,2100410150,75
2.55859375,12654.228515625,-1.0,2100410150,75
63.509765625,32.998046875,-1.0,2100410150,75
38.009765625,33.498046875,-1.0,2100410150,75
-57.990234375,33.501953125,-1.0,2100410150,75
-7.9921875,34.0,-1.0,2100410150,75
-30.990234375,31.5,-0.5,2100410150,75
-14.990234375,32.498046875,-0.5,2100410150,75
-20.490234375,32.998046875,-0.5,2100410150,75
-59.490234375,33.498046875,-0.5,2100410150,75
24.0078125,33.50390625,-0.5,2100410150,75
-61.490234375,34.001953125,-0.5,2100410150,75
0.373046875,0.12890625,0.0,2100410150,75
-0.4921875,0.12890625,0.00390625,2100410150,75
0.1328125,0.130859375,0.005859375,2100410150,75
-2.2890625,0.1328125,-0.009765625,2100410150,75
-2.357421875,0.125,-0.005859375,2100410150,75
2.25390625,0.126953125,-0.005859375,2100410150,75
1.462890625,0.12890625,-0.005859375,2100410150,75
0.189453125,0.126953125,-0.00390625,2100410150,75
2.115234375,0.12890625,-0.00390625,2100410150,75
-1.017578125,0.130859375,-0.00390625,2100410150,75
0.3125,0.1328125,-0.00390625,2100410150,75
2.427734375,0.12890625,-0.001953125,2100410150,75
-1.142578125,0.130859375,-0.001953125,2100410150,75
1.0625,0.1328125,-0.001953125,2100410150,75
-1.71484375,0.0234375,0.0,2100410150,75
0.158203125,2.525390625,-0.166015625,2250224124,78
0.2421875,2.552734375,-0.248046875,2250224124,78
0.24609375,2.5859375,-0.322265625,2250224124,78
0.33203125,2.6171875,-0.337890625,2250224124,78
0.16796875,2.6953125,-0.033203125,2250224124,78
0.171875,2.70703125,0.392578125,2250224124,78
-0.826171875,55.0078125,31.00390625,2250224124,78
8.0,-16.490234375,31.998046875,2250224124,78
17.0,-2.990234375,32.498046875,2250224124,78
27.0,18.009765625,32.5,2250224124,78
28.5,10.509765625,33.0,2250224124,78
42.5,-5.490234375,33.998046875,2250224124,78
49.5,57.509765625,34.498046875,2250224124,78
-25.49609375,53.0078125,31.501953125,2250224124,78
18.0,22.509765625,32.0,2250224124,78
26.5,32.009765625,32.5,2250224124,78
26.5,52.009765625,33.0,2250224124,78
2.640625,0.234375,0.130859375,2250224124,78
2.705078125,-0.087890625,0.12890625,2250224124,78
2.423828125,-0.45703125,0.130859375,2250224124,78
2.494140625,-0.2265625,0.1328125,2250224124,78
2.53125,-0.23828125,0.134765625,2250224124,78
2.564453125,-0.271484375,0.125,2250224124,78
2.498046875,-0.744140625,0.126953125,2250224124,78
2.515625,-0.84375,0.12890625,2250224124,78
2.43359375,-0.404296875,0.130859375,2250224124,78
2.48046875,-0.34375,0.1328125,2250224124,78
2.537109375,12656.8515625,-1.0,2250224124,78
-51.990234375,31.998046875,-0.5,2250224124,78
-8.990234375,32.49609375,-0.5,2250224124,78
-46.490234375,32.99609375,-0.5,2250224124,78
-62.490234375,33.49609375,-0.5,2250224124,78
56.5078125,33.998046875,-0.5,2250224124,78
11.009765625,49.9375,-0.001953125,2250224124,78
-0.55859375,0.12890625,0.0,2250224124,78
-0.154296875,0.130859375,0.0,2250224124,78
-0.28125,0.1328125,0.0,2250224124,78
-0.4765625,0.126953125,0.001953125,2250224124,78
-2.5625,0.12890625,0.001953125,2250224124,78
-2.208984375,0.130859375,0.001953125,2250224124,78
-2.380859375,0.1328125,0.001953125,2250224124,78
-0.84765625,0.126953125,0.00390625,2250224124,78
-1.79296875,0.12890625,0.00390625,2250224124,78
-1.7578125,0.130859375,0.00390625,2250224124,78
33.490234375,-1.5,14.498046875,2250224124,78
32.9921875,-1.0,49.498046875,2250224124,78
33.498046875,-1.0,-27.501953125,2250224124,78
33.994140625,-1.0,-25.001953125,2250224124,78
34.48828125,-1.0,-51.001953125,2250224124,78
32.990234375,-0.5,-51.001953125,2250224124,78
33.0,-0.5,49.498046875,2250224124,78
33.998046875,-0.5,39.498046875,2250224124,78
34.00390625,-0.5,-37.001953125,2250224124,78
6.005859375,0.0,40.0,2250224124,78
0.16015625,2.51953125,-0.51953125,2350202550,80
0.24609375,2.544921875,-0.56640625,2350202550,80
0.25,2.59765625,-0.513671875,2350202550,80
0.16796875,2.666015625,-0.392578125,2350202550,80
0.171875,2.712890625,-0.3515625,2350202550,80
1.216796875,2.49609375,0.15234375,2350202550,80
0.16015625,2.53515625,-0.431640625,2350202550,80
0.1640625,2.552734375,-0.556640625,2350202550,80
0.25,2.583984375,-0.578125,2350202550,80
0.16796875,2.650390625,-0.48046875,2350202550,80
0.171875,2.734375,-0.083984375,2350202550,80
1.130859375,2.529296875,-0.2578125,2350202550,80
0.16015625,2.546875,-0.353515625,2350202550,80
0.1640625,2.560546875,-0.51953125,2350202550,80
0.166015625,2.58984375,-0.58203125,2350202550,80
0.16796875,2.646484375,-0.50390625,2350202550,80
0.171875,2.73046875,-0.158203125,2350202550,80
16.0,-6.990234375,32.99609375,2350202550,80
21.5,-30.990234375,33.49609375,2350202550,80
22.0,62.009765625,33.99609375,2350202550,80
22.5,26.009765625,33.99609375,2350202550,80
35.5,-61.990234375,32.99609375,2350202550,80
-8.998046875,-13.4921875,31.99609375,2350202550,80
-2.0,-28.9921875,32.49609375,2350202550,80
13.0,2.509765625,32.998046875,2350202550,80
26.0,16.009765625,33.498046875,2350202550,80
41.5,33.009765625,33.998046875,2350202550,80
58.0,58.509765625,34.498046875,2350202550,80
5.50390625,47.509765625,31.998046875,2350202550,80
1.0,-21.490234375,32.49609375,2350202550,80
12.5,-11.990234375,32.99609375,2350202550,80
27.0,8.009765625,33.498046875,2350202550,80
43.0,33.009765625,33.998046875,2350202550,80
-9.99609375,-30.4921875,49.9375,2350202550,80
2.498046875,-0.125,0.126953125,2350202550,80
2.32421875,0.564453125,0.12890625,2350202550,80
2.390625,0.421875,0.130859375,2350202550,80
2.431640625,-0.40234375,0.1328125,2350202550,80
2.716796875,0.5703125,0.130859375,2350202550,80
2.728515625,-0.1796875,0.0234375,2350202550,80
0.2421875,2.435546875,-0.806640625,2450780179,82
0.24609375,2.49609375,-0.75,2450780179,82
0.33203125,2.55078125,-0.67578125,2450780179,82
0.421875,2.517578125,-0.880859375,2450780179,82
-0.2578125,2.6640625,0.591796875,2450780179,82
0.26171875,2.59375,-0.970703125,2450780179,82
-9.33984375,-61.4921875,32.49609375,2450780179,82
2.0,-59.990234375,32.99609375,2450780179,82
14.5,-46.990234375,33.49609375,2450780179,82
41.5,-49.990234375,33.5,2450780179,82
58.5,8.509765625,34.0,2450780179,82
-59.0,-46.490234375,34.998046875,2450780179,82
-52.0,43.509765625,31.998046875,2450780179,82
4.0,-8.990234375,32.49609375,2450780179,82
13.0,-15.990234375,32.99609375,2450780179,82
24.0,-16.490234375,33.49609375,2450780179,82
41.5,-53.490234375,33.5,2450780179,82
2.7265625,0.087890625,0.1328125,2450780179,82
2.5390625,0.107421875,0.134765625,2450780179,82
2.537109375,-0.091796875,0.126953125,2450780179,82
2.658203125,-0.01171875,0.12890625,2450780179,82
2.43359375,-0.5859375,0.130859375,2450780179,82
2.53515625,-0.169921875,0.1328125,2450780179,82
2.541015625,0.017578125,0.134765625,2450780179,82
2.578125,0.029296875,0.13671875,2450780179,82
2.6171875,0.005859375,0.126953125,2450780179,82
2.455078125,-0.228515625,0.12890625,2450780179,82
2.484375,12655.6953125,2.0,2450780179,82
54.5078125,34.498046875,2.0,2450780179,82
-22.490234375,34.998046875,2.0,2450780179,82
-38.490234375,40.5,2.0,2450780179,82
17.5,41.01171875,2.0,2450780179,82
13.0,32.51171875,2.5,2450780179,82
-24.4921875,49.93359375,0.009765625,2450780179,82
-0.232421875,0.130859375,0.009765625,2450780179,82
-0.341796875,0.1328125,0.009765625,2450780179,82
-0.423828125,0.134765625,0.009765625,2450780179,82
-0.51171875,0.15625,0.009765625,2450780179,82
3.1875,0.158203125,0.009765625,2450780179,82
3.0703125,0.16015625,0.009765625,2450780179,82
3.154296875,0.126953125,0.01171875,2450780179,82
-0.041015625,0.12890625,0.01171875,2450780179,82
-0.1640625,0.130859375,0.01171875,2450780179,82
-0.220703125,0.1328125,0.01171875,2450780179,82
34.998046875,3.0,49.0,2450780179,82
35.498046875,3.0,37.0,2450780179,82
40.99609375,3.0,23.0,2450780179,82
33.51171875,3.5,25.0,2450780179,82
34.0,3.5,24.0,2450780179,82
34.5,3.5,23.0,2450780179,82
35.498046875,3.5,23.5,2450780179,82
33.998046875,-4.0,17.498046875,2450780179,82
34.498046875,-4.0,18.498046875,2450780179,82
33.498046875,-1.5,26.498046875,2450780179,82
33.998046875,-1.5,21.498046875,2450780179,82
34.998046875,-1.5,18.998046875,2450780179,82
32.494140625,-1.0,29.998046875,2450780179,82
32.99609375,-1.0,35.998046875,2450780179,82
33.494140625,-1.0,50.998046875,2450780179,82
33.5,-1.0,-55.001953125,2450780179,82
34.498046875,-1.0,37.998046875,2450780179,82
31.5,-0.5,17.998046875,2450780179,82
32.498046875,-0.5,-62.001953125,2450780179,82
6.498046875,0.0,40.0,2450780179,82
0.982421875,2.421875,-0.142578125,2550479518,84
1.1640625,2.361328125,0.380859375,2550479518,84
0.16796875,2.681640625,-0.255859375,2550479518,84
0.0859375,2.7265625,-0.2734375,2550479518,84
0.087890625,2.65625,-0.8203125,2550479518,84
1.234375,2.533203125,-0.1484375,2550479518,84
128.6640625,-39.490234375,35.998046875,2550479518,84
38.50390625,-34.490234375,32.498046875,2550479518,84
-26.998046875,-27.4921875,32.5,2550479518,84
23.0,-0.990234375,33.49609375,2550479518,84
45.5,0.009765625,33.5,2550479518,84
56.5,52.509765625,34.0,2550479518,84
10.00390625,-30.490234375,34.998046875,2550479518,84
20.00390625,5.509765625,35.0,2550479518,84
29.50390625,16.009765625,35.5,2550479518,84
39.00390625,22.509765625,33.0,2550479518,84
-14.998046875,-46.9921875,33.99609375,2550479518,84
11.501953125,28.509765625,34.498046875,2550479518,84
16.50390625,59.509765625,34.998046875,2550479518,84
34.501953125,-54.490234375,35.0,2550479518,84
25.001953125,50.009765625,35.501953125,2550479518,84
38.001953125,39.509765625,33.001953125,2550479518,84
34.001953125,17.009765625,33.5,2550479518,84
19.001953125,-2.490234375,34.498046875,2550479518,84
24.501953125,54.509765625,34.998046875,2550479518,84
20.50390625,17.009765625,35.498046875,2550479518,84
16.00390625,-6.990234375,35.99609375,2550479518,84
18.50390625,-39.490234375,49.7421875,2550479518,84
2.576171875,-0.10546875,0.134765625,2550479518,84
2.611328125,-0.158203125,0.13671875,2550479518,84
2.64453125,-0.224609375,0.138671875,2550479518,84
2.63671875,-0.3046875,0.125,2550479518,84
2.548828125,-0.49609375,0.126953125,2550479518,84
2.640625,12655.201171875,-1.5,2550479518,84
-51.490234375,33.998046875,-1.5,2550479518,84
-61.490234375,34.498046875,-1.5,2550479518,84
37.509765625,32.498046875,-1.0,2550479518,84
43.509765625,32.998046875,-1.0,2550479518,84
-47.490234375,33.498046875,-1.0,2550479518,84
11.009765625,33.5,-1.0,2550479518,84
47.009765625,34.0,-1.0,2550479518,84
-58.490234375,32.0,-0.5,2550479518,84
-51.490234375,32.998046875,-0.5,2550479518,84
61.509765625,33.498046875,-0.5,2550479518,84
0.1484375,0.130859375,-0.001953125,2550479518,84
0.234375,0.1328125,-0.001953125,2550479518,84
-1.01171875,0.134765625,-0.001953125,2550479518,84
-0.037109375,0.125,0.0,2550479518,84
0.515625,0.126953125,0.0,2550479518,84
-1.49609375,0.12890625,0.0,2550479518,84
0.578125,0.130859375,0.0,2550479518,84
0.70703125,0.1328125,0.0,2550479518,84
0.177734375,0.134765625,0.0,2550479518,84
-2.54296875,0.126953125,0.001953125,2550479518,84
0.484375,0.1328125,-55.998046875,2550479518,84
33.0,1.0,13.0,2550479518,84
33.5,1.0,29.5,2550479518,84
35.50390625,1.5,29.5,2550479518,84
35.509765625,2.0,16.0,2550479518,84
33.48828125,-0.5,49.498046875,2550479518,84
33.501953125,-0.5,-41.501953125,2550479518,84
34.498046875,-0.5,52.498046875,2550479518,84
34.5,-0.5,24.998046875,2550479518,84
6.4921875,0.0,40.0,2550479518,84
0.16015625,2.568359375,-0.119140625,2650328483,86
0.24609375,2.572265625,-0.41796875,2650328483,86
0.25,2.634765625,-0.259765625,2650328483,86
0.16796875,2.689453125,-0.16796875,2650328483,86
0.341796875,2.71875,0.013671875,2650328483,86
0.34765625,2.75390625,0.19140625,2650328483,86
-9.94140625,4.009765625,35.498046875,2650328483,86
24.00390625,41.509765625,31.998046875,2650328483,86
12.0,-56.990234375,32.498046875,2650328483,86
19.5,43.509765625,32.998046875,2650328483,86
30.5,46.009765625,33.498046875,2650328483,86
45.0,-35.490234375,33.998046875,2650328483,86
58.0,29.509765625,31.5,2650328483,86
11.5,-62.490234375,32.498046875,2650328483,86
20.5,51.509765625,32.998046875,2650328483,86
31.0,52.509765625,33.498046875,2650328483,86
44.0,-50.990234375,33.998046875,2650328483,86
53.0,-7.490234375,32.998046875,2650328483,86
37.5,-14.490234375,34.498046875,2650328483,86
8.50390625,51.509765625,34.0,2650328483,86
4.50390625,-38.990234375,34.5,2650328483,86
4.5,-57.990234375,35.494140625,2650328483,86
27.5,-38.990234375,34.994140625,2650328483,86
32.0,7.009765625,33.99609375,2650328483,86
-14.5,-58.9921875,34.494140625,2650328483,86
-40.5,0.0078125,32.494140625,2650328483,86
6.0,-39.490234375,32.99609375,2650328483,86
37.0,-53.990234375,33.498046875,2650328483,86
47.5,-53.490234375,33.998046875,2650328483,86
41.0,-28.490234375,34.49609375,2650328483,86
53.5,-5.990234375,34.99609375,2650328483,86
50.50390625,38.5078125,35.494140625,2650328483,86
-15.49609375,14.0078125,31.99609375,2650328483,86
14.5,57.509765625,49.9296875,2650328483,86
2.5078125,-0.708984375,0.126953125,2650328483,86
2.646484375,-0.193359375,0.12890625,2650328483,86
2.693359375,-0.068359375,0.130859375,2650328483,86
2.72265625,-0.17578125,0.1328125,2650328483,86
2.748046875,-0.02734375,0.134765625,2650328483,86
2.4921875,-0.6640625,0.13671875,2650328483,86
2.5625,-0.529296875,0.130859375,2650328483,86
2.494140625,0.228515625,0.1328125,2650328483,86
2.57421875,0.16015625,0.125,2650328483,86
1.34765625,2.119140625,0.1328125,2650328483,86
0.0,2.671875,0.0234375,2650328483,86
0.080078125,2.568359375,0.189453125,2750782966,88
0.08203125,2.61328125,-0.15234375,2750782966,88
0.083984375,2.658203125,-0.013671875,2750782966,88
0.16796875,2.6875,0.181640625,2750782966,88
0.0859375,2.73828125,0.048828125,2750782966,88
1.130859375,2.541015625,0.044921875,2750782966,88
-7.853515625,-5.490234375,32.498046875,2750782966,88
27.0,-52.990234375,32.998046875,2750782966,88
36.5,57.509765625,33.498046875,2750782966,88
41.0,11.009765625,33.998046875,2750782966,88
46.5,-15.490234375,32.99609375,2750782966,88
40.5,5.009765625,33.0,2750782966,88
50.0,-30.490234375,35.498046875,2750782966,88
39.00390625,32.509765625,35.5,2750782966,88
26.50390625,55.509765625,33.0,2750782966,88
-18.99609375,24.5078125,33.5,2750782966,88
-9.49609375,24.5078125,33.0,2750782966,88
-33.99609375,-53.9921875,33.5,2750782966,88
-10.99609375,51.5078125,34.0,2750782966,88
-0.99609375,43.5078125,34.5,2750782966,88
7.50390625,52.509765625,35.0,2750782966,88
16.50390625,59.009765625,34.0,2750782966,88
5.50390625,-46.490234375,34.5,2750782966,88
2.00390625,-28.990234375,35.0,2750782966,88
21.50390625,-23.990234375,34.0,2750782966,88
12.00390625,-23.490234375,34.5,2750782966,88
10.50390625,-14.490234375,35.0,2750782966,88
18.50390625,-4.990234375,0.125,2750782966,88
2.421875,-0.142578125,0.126953125,2750782966,88
2.458984375,-0.171875,0.12890625,2750782966,88
2.49609375,-0.1953125,0.130859375,2750782966,88
2.521484375,-0.31640625,0.125,2750782966,88
2.42578125,-0.03515625,0.126953125,2750782966,88
2.46484375,12655.484375,-3.0,2750782966,88
-6.490234375,33.998046875,-3.0,2750782966,88
-17.490234375,34.498046875,-3.0,2750782966,88
55.509765625,32.998046875,-2.5,2750782966,88
52.0078125,33.0,-2.5,2750782966,88
59.5078125,33.5,-2.5,2750782966,88
28.0078125,34.494140625,-2.5,2750782966,88
-28.490234375,34.998046875,-2.5,2750782966,88
-6.490234375,35.49609375,-2.5,2750782966,88
-22.490234375,33.49609375,-2.0,2750782966,88
-0.490234375,33.994140625,-2.0,2750782966,88
0.642578125,0.1328125,-0.0078125,2750782966,88
0.189453125,0.134765625,-0.0078125,2750782966,88
-0.171875,0.13671875,-0.0078125,2750782966,88
-0.341796875,0.138671875,-0.0078125,2750782966,88
-0.359375,0.125,-0.005859375,2750782966,88
-0.771484375,0.126953125,-0.005859375,2750782966,88
-0.8125,0.12890625,-0.005859375,2750782966,88
-0.705078125,0.130859375,-0.005859375,2750782966,88
0.626953125,0.1328125,-0.005859375,2750782966,88
0.666015625,0.134765625,-0.005859375,2750782966,88
0.1640625,0.13671875,127550.994140625,2750782966,88
32.498046875,-1.0,30.498046875,2750782966,88
32.99609375,-1.0,36.998046875,2750782966,88
33.49609375,-1.0,20.998046875,2750782966,88
33.994140625,-1.0,26.498046875,2750782966,88
34.49609375,-1.0,18.998046875,2750782966,88
32.0,-0.5,32.498046875,2750782966,88
32.998046875,-0.5,33.998046875,2750782966,88
33.00390625,-0.5,-44.501953125,2750782966,88
6.498046875,0.0,40.0,2750782966,88
-0.1640625,1.384765625,-2.21484375,2900713932,91
-0.083984375,2.38671875,-1.16796875,2900713932,91
0.16796875,2.587890625,-0.75390625,2900713932,91
0.171875,2.619140625,-0.7890625,2900713932,91
1.130859375,2.541015625,0.078125,2900713932,91
1.146484375,2.576171875,-0.11328125,2900713932,91
0.16015625,2.56640625,-0.173828125,2900713932,91
0.1640625,2.599609375,-0.2578125,2900713932,91
0.083984375,2.640625,-0.30078125,2900713932,91
0.083984375,2.67578125,-0.34375,2900713932,91
0.0859375,2.689453125,-0.521484375,2900713932,91
0.087890625,2.779296875,0.029296875,2900713932,91
0.08203125,2.595703125,-0.333984375,2900713932,91
0.083984375,2.64453125,-0.26171875,2900713932,91
0.083984375,2.68359375,-0.275390625,2900713932,91
0.0859375,2.69921875,-0.47265625,2900713932,91
0.95703125,2.576171875,0.435546875,2900713932,91
0.982421875,2.4140625,0.2421875,2900713932,91
0.166015625,2.583984375,-0.607421875,2900713932,91
0.25390625,2.654296875,-0.423828125,2900713932,91
0.341796875,2.712890625,-0.185546875,2900713932,91
0.416015625,2.5546875,-0.607421875,2900713932,91
0.505859375,2.603515625,-0.501953125,2900713932,91
0.599609375,2.65625,-0.30859375,2900713932,91
0.95703125,2.591796875,-0.33203125,2900713932,91
0.408203125,2.55078125,-0.427734375,2900713932,91
0.416015625,2.58203125,-0.474609375,2900713932,91
0.421875,2.625,-0.470703125,2900713932,91
0.513671875,2.677734375,-0.2734375,2900713932,91
0.869140625,0.0,-2.650390625,2900713932,91
0.79296875,0.0,2.798828125,2900713932,91
1.216796875,2.486328125,0.26953125,2900713932,91
1.234375,2.52734375,0.23828125,2900713932,91
1.130859375,2.513671875,34.873046875,2900713932,91
3.50390625,-37.490234375,35.0,2900713932,91
27.50390625,55.009765625,34.0,2900713932,91
0.00390625,27.509765625,34.5,2900713932,91
8.50390625,36.509765625,32.5,2900713932,91
-28.49609375,25.0078125,33.0,2900713932,91
-18.49609375,-13.4921875,33.998046875,2900713932,91
-12.99609375,56.0078125,34.498046875,2900713932,91
-23.49609375,-45.9921875,34.99609375,2900713932,91
-34.99609375,52.5078125,32.99609375,2900713932,91
-17.99609375,-3.4921875,33.498046875,2900713932,91
-19.99609375,-42.4921875,33.998046875,2900713932,91
-14.99609375,42.0078125,34.498046875,2900713932,91
-2.99609375,-63.9921875,34.998046875,2900713932,91
6.50390625,-63.490234375,31.998046875,2900713932,91
1.0,-14.490234375,32.49609375,2900713932,91
24.5,-62.490234375,32.998046875,2900713932,91
34.5,-47.990234375,33.0,2900713932,91
-17.49609375,21.5078125,33.998046875,2900713932,91
4.00390625,36.009765625,34.498046875,2900713932,91
12.50390625,29.509765625,31.998046875,2900713932,91
13.5,47.509765625,32.498046875,2900713932,91
27.0,-14.990234375,32.998046875,2900713932,91
31.5,-37.990234375,33.0,2900713932,91
-5.49609375,40.0078125,33.998046875,2900713932,91
17.501953125,-42.490234375,34.498046875,2900713932,91
28.001953125,-30.990234375,32.998046875,2900713932,91
-8.998046875,-10.9921875,33.498046875,2900713932,91
-1.99609375,60.5078125,33.5,2900713932,91
3.50390625,-32.490234375,34.0,2900713932,91
28.0,14.009765625,6.49609375,2900713932,91
0.158203125,2.53125,0.0390625,3000780946,93
0.16015625,2.572265625,0.0,3000780946,93
0.1640625,2.609375,-0.115234375,3000780946,93
0.166015625,2.646484375,-0.197265625,3000780946,93
0.0,2.69921875,0.083984375,3000780946,93
0.0,2.720703125,0.3359375,3000780946,93
50.0,48.009765625,34.501953125,3000780946,93
19.00390625,-38.490234375,31.998046875,3000780946,93
18.0,-17.490234375,32.498046875,3000780946,93
28.0,32.009765625,32.5,3000780946,93
36.5,38.009765625,33.0,3000780946,93
34.501953125,2.509765625,33.5,3000780946,93
37.001953125,25.009765625,34.498046875,3000780946,93
10.50390625,23.509765625,34.5,3000780946,93
9.50390625,-2.490234375,32.498046875,3000780946,93
28.0,34.009765625,32.5,3000780946,93
27.5,38.009765625,33.0,3000780946,93
2.66015625,0.185546875,0.130859375,3000780946,93
2.70703125,0.01171875,0.1328125,3000780946,93
2.4375,0.55859375,0.134765625,3000780946,93
2.53515625,0.138671875,0.126953125,3000780946,93
2.607421875,0.3125,0.12890625,3000780946,93
2.65625,0.232421875,0.130859375,3000780946,93
2.71875,0.0,0.1328125,3000780946,93
2.59765625,-0.896484375,0.134765625,3000780946,93
2.521484375,-0.2890625,0.12890625,3000780946,93
2.642578125,-0.359375,0.130859375,3000780946,93
2.490234375,12656.23828125,2.0,3000780946,93
1.5078125,34.998046875,2.0,3000780946,93
21.509765625,35.498046875,2.0,3000780946,93
-59.990234375,32.998046875,2.5,3000780946,93
60.0078125,33.498046875,2.5,3000780946,93
40.5078125,33.998046875,2.5,3000780946,93
4.0078125,49.9375,0.009765625,3000780946,93
-0.6015625,0.134765625,0.009765625,3000780946,93
-0.466796875,0.126953125,0.01171875,3000780946,93
-0.091796875,0.12890625,0.01171875,3000780946,93
-0.236328125,0.130859375,0.01171875,3000780946,93
-0.44140625,0.1328125,0.01171875,3000780946,93
-0.59765625,0.134765625,0.01171875,3000780946,93
-0.837890625,0.12890625,0.013671875,3000780946,93
-0.423828125,0.130859375,0.013671875,3000780946,93
-0.46484375,0.1328125,0.013671875,3000780946,93
-0.482421875,0.134765625,0.013671875,3000780946,93
33.99609375,-4.0,21.498046875,3000780946,93
34.0078125,-4.0,22.998046875,3000780946,93
34.5078125,-4.0,17.498046875,3000780946,93
32.498046875,-3.0,15.998046875,3000780946,93
31.99609375,-2.5,18.498046875,3000780946,93
32.498046875,-2.5,27.998046875,3000780946,93
32.998046875,-2.5,24.498046875,3000780946,93
33.498046875,-2.5,15.498046875,3000780946,93
32.49609375,-2.0,26.498046875,3000780946,93
32.998046875,-2.0,34.998046875,3000780946,93
33.498046875,-2.0,49.900390625,3000780946,93
0.125,-0.005859375,0.083984375,3000780946,93
0.126953125,-0.005859375,0.142578125,3000780946,93
0.12890625,-0.005859375,0.203125,3000780946,93
0.130859375,-0.005859375,0.201171875,3000780946,93
0.1328125,-0.005859375,0.11328125,3000780946,93
0.123046875,-0.00390625,0.173828125,3000780946,93
0.125,-0.00390625,0.279296875,3000780946,93
0.126953125,-0.00390625,0.466796875,3000780946,93
0.0234375,0.0,39.15625,3000780946,93
0.23828125,2.521484375,0.142578125,3100772137,95
0.16015625,2.568359375,-0.126953125,3100772137,95
0.24609375,2.6015625,-0.16796875,3100772137,95
0.25,2.63671875,-0.240234375,3100772137,95
0.421875,2.66015625,-0.181640625,3100772137,95
0.427734375,2.697265625,0.232421875,3100772137,95
13.130859375,28.009765625,34.998046875,3100772137,95
5.50390625,55.009765625,32.498046875,3100772137,95
24.5,-62.990234375,32.998046875,3100772137,95
36.5,-43.990234375,33.498046875,3100772137,95
42.0,-32.490234375,33.998046875,3100772137,95
53.0,-17.490234375,34.498046875,3100772137,95
53.501953125,43.009765625,34.5,3100772137,95
19.50390625,-26.990234375,35.498046875,3100772137,95
39.50390625,-9.990234375,30.498046875,3100772137,95
-15.501953125,-5.99609375,31.505859375,3100772137,95
-38.99609375,44.0078125,32.0,3100772137,95
2.435546875,0.33984375,0.126953125,3100772137,95
2.63671875,-0.099609375,0.12890625,3100772137,95
2.666015625,0.0078125,0.130859375,3100772137,95
2.70703125,0.029296875,0.1328125,3100772137,95
2.73828125,0.216796875,0.134765625,3100772137,95
2.615234375,0.06640625,0.13671875,3100772137,95
2.646484375,0.197265625,0.125,3100772137,95
2.404296875,0.337890625,0.126953125,3100772137,95
2.541015625,0.224609375,0.12890625,3100772137,95
2.666015625,0.009765625,0.130859375,3100772137,95
2.71875,34.044921875,1.5,3100772137,95
53.009765625,33.5,2.0,3100772137,95
52.509765625,33.498046875,2.5,3100772137,95
-15.494140625,32.990234375,-4.0,3100772137,95
50.009765625,31.99609375,-3.5,3100772137,95
-15.990234375,32.49609375,-3.5,3100772137,95
-26.490234375,49.736328125,-0.013671875,3100772137,95
-0.556640625,0.12890625,-0.013671875,3100772137,95
-0.6171875,0.12109375,-0.01171875,3100772137,95
-0.294921875,0.123046875,-0.01171875,3100772137,95
-0.294921875,0.125,-0.01171875,3100772137,95
-0.224609375,0.126953125,-0.01171875,3100772137,95
-0.330078125,0.12890625,-0.01171875,3100772137,95
-0.4453125,0.12109375,-0.009765625,3100772137,95
-0.17578125,0.123046875,-0.009765625,3100772137,95
-0.044921875,0.125,-0.009765625,3100772137,95
0.234375,0.126953125,-0.009765625,3100772137,95
33.0,-2.5,28.498046875,3100772137,95
32.498046875,-2.0,20.998046875,3100772137,95
32.501953125,-2.0,26.998046875,3100772137,95
32.501953125,-1.5,19.998046875,3100772137,95
33.494140625,-1.5,17.498046875,3100772137,95
31.99609375,-1.0,54.498046875,3100772137,95
32.498046875,-1.0,-44.001953125,3100772137,95
32.99609375,-1.0,-57.501953125,3100772137,95
33.49609375,-1.0,-55.501953125,3100772137,95
33.99609375,-1.0,-41.001953125,3100772137,95
34.498046875,-1.0,498.498046875,3100772137,95
0.134765625,-0.00390625,0.29296875,3100772137,95
0.12109375,-0.001953125,0.09765625,3100772137,95
0.123046875,-0.001953125,0.439453125,3100772137,95
0.125,-0.001953125,0.6875,3100772137,95
0.126953125,-0.001953125,0.408203125,3100772137,95
0.12890625,-0.001953125,0.287109375,3100772137,95
0.130859375,-0.001953125,0.58203125,3100772137,95
0.1328125,-0.001953125,0.7578125,3100772137,95
0.0234375,0.0,51.15625,3100772137,95
0.076171875,2.412109375,-0.01171875,3250427398,98
0.23828125,2.515625,-0.212890625,3250427398,98
0.2421875,2.55078125,-0.28515625,3250427398,98
0.328125,2.57421875,-0.34765625,3250427398,98
0.25,2.607421875,-0.458984375,3250427398,98
0.513671875,2.689453125,-0.134765625,3250427398,98
-10.353515625,60.509765625,35.0,3250427398,98
28.50390625,44.509765625,31.0,3250427398,98
5.5,-37.490234375,31.998046875,3250427398,98
15.5,-43.990234375,32.498046875,3250427398,98
25.0,-57.490234375,32.998046875,3250427398,98
34.0,59.509765625,33.498046875,3250427398,98
44.5,-43.490234375,33.998046875,3250427398,98
56.0,-18.490234375,31.498046875,3250427398,98
7.0,-31.990234375,31.998046875,3250427398,98
16.5,-25.490234375,32.498046875,3250427398,98
27.0,-50.490234375,32.998046875,3250427398,98
34.5,63.009765625,33.498046875,3250427398,98
45.5,13.009765625,33.5,3250427398,98
54.5,45.009765625,33.0,3250427398,98
34.0,-19.490234375,33.99609375,3250427398,98
28.0,42.009765625,34.49609375,3250427398,98
31.5,23.509765625,31.49609375,3250427398,98
1.0,-31.990234375,31.5,3250427398,98
12.0,-34.990234375,32.0,3250427398,98
22.0,-33.490234375,32.5,3250427398,98
34.5,-47.990234375,33.0,3250427398,98
49.5,-13.990234375,33.998046875,3250427398,98
51.5,18.009765625,31.498046875,3250427398,98
-1.5,-17.9921875,31.5,3250427398,98
11.0,-27.990234375,32.0,3250427398,98
24.5,-51.990234375,32.5,3250427398,98
37.5,19.009765625,33.0,3250427398,98
44.0,-49.490234375,49.935546875,3250427398,98
2.69140625,-0.291015625,0.134765625,3250427398,98
2.537109375,-0.046875,0.13671875,3250427398,98
2.5703125,-0.1640625,0.12109375,3250427398,98
2.51171875,0.34765625,0.123046875,3250427398,98
2.560546875,0.244140625,0.125,3250427398,98
2.61328125,0.017578125,0.126953125,3250427398,98
2.623046875,-0.3515625,0.12890625,3250427398,98
2.666015625,-0.267578125,0.130859375,3250427398,98
2.705078125,-0.115234375,0.1328125,3250427398,98
2.611328125,-0.0625,0.134765625,3250427398,98
19.509765625,35.0,-0.5,3250427398,98
4.509765625,32.0,0.0,3250427398,98
30.009765625,6.498046875,0.0,3250427398,98
0.40234375,2.501953125,-0.47265625,3350494196,100
0.328125,2.53125,-0.5859375,3350494196,100
0.416015625,2.548828125,-0.630859375,3350494196,100
0.58984375,2.5703125,-0.57421875,3350494196,100
0.158203125,2.529296875,-0.083984375,3350494196,100
0.16015625,2.55078125,-0.3359375,3350494196,100
18.24609375,18.009765625,32.998046875,3350494196,100
26.0,16.509765625,33.498046875,3350494196,100
34.501953125,49.009765625,33.998046875,3350494196,100
38.501953125,-37.490234375,31.998046875,3350494196,100
16.0,-29.990234375,32.498046875,3350494196,100
23.5,56.009765625,32.998046875,3350494196,100
31.5,56.509765625,33.498046875,3350494196,100
42.0,56.009765625,33.998046875,3350494196,100
-21.99609375,-42.9921875,34.49609375,3350494196,100
-16.99609375,-60.4921875,34.99609375,3350494196,100
-16.99609375,-56.4921875,35.49609375,3350494196,100
2.5,-0.6171875,0.12890625,3350494196,100
2.375,-0.5,0.130859375,3350494196,100
2.43359375,-0.587890625,0.1328125,3350494196,100
2.41796875,-0.63671875,0.134765625,3350494196,100
2.486328125,-0.6875,0.13671875,3350494196,100
2.6015625,-0.52734375,0.126953125,3350494196,100
2.38671875,-0.453125,0.12890625,3350494196,100
2.390625,-0.42578125,0.130859375,3350494196,100
2.458984375,-0.4765625,0.1328125,3350494196,100
2.447265625,-0.515625,0.134765625,3350494196,100
2.47265625,12732.923828125,-1.5,3350494196,100
54.0078125,33.498046875,-1.5,3350494196,100
56.5078125,33.998046875,-1.5,3350494196,100
53.5078125,34.498046875,-1.5,3350494196,100
53.009765625,34.998046875,-1.5,3350494196,100
-55.490234375,31.498046875,-1.0,3350494196,100
-13.9921875,0.123046875,-0.00390625,3350494196,100
0.427734375,0.125,-0.00390625,3350494196,100
1.15234375,0.126953125,-0.00390625,3350494196,100
-0.068359375,0.12890625,-0.00390625,3350494196,100
-0.09765625,0.130859375,-0.00390625,3350494196,100
-0.05078125,0.1328125,-0.00390625,3350494196,100
0.00390625,0.134765625,-0.00390625,3350494196,100
0.044921875,0.12109375,-0.001953125,3350494196,100
0.40625,0.123046875,-0.001953125,3350494196,100
0.1484375,0.125,-0.001953125,3350494196,100
-0.625,0.126953125,-0.001953125,3350494196,100
33.4921875,-0.5,40.998046875,3350494196,100
33.5,-0.5,-39.001953125,3350494196,100
34.0,-0.5,-8.001953125,3350494196,100
34.5,-0.5,-17.501953125,3350494196,100
31.5,0.0,12.5,3350494196,100
32.5078125,0.0,43.0,3350494196,100
32.5078125,-1.5,22.998046875,3350494196,100
34.5078125,-1.5,34.498046875,3350494196,100
32.009765625,-1.0,28.998046875,3350494196,100
32.998046875,-1.0,30.498046875,3350494196,100
32.5078125,-0.5,49.875,3350494196,100
0.0234375,0.0,31.0625,3350494196,100
0.158203125,2.525390625,-0.169921875,3450677150,102
0.16015625,2.572265625,0.01953125,3450677150,102
0.1640625,2.61328125,0.04296875,3450677150,102
0.166015625,2.654296875,-0.015625,3450677150,102
0.421875,2.580078125,-0.677734375,3450677150,102
1.28515625,2.4140625,-0.189453125,3450677150,102
1.130859375,2.53515625,-0.18359375,3450677150,102
1.146484375,2.578125,0.033203125,3450677150,102
0.076171875,2.451171875,-0.072265625,3450677150,102
0.15625,2.458984375,0.400390625,3450677150,102
0.158203125,2.46875,0.560546875,3450677150,102
0.16015625,2.33984375,1.0703125,3450677150,102
1.064453125,2.38671875,0.158203125,3450677150,102
1.080078125,2.421875,0.193359375,3450677150,102
1.09765625,2.46484375,-0.087890625,3450677150,102
1.11328125,2.49609375,-0.19921875,3450677150,102
1.130859375,2.537109375,-0.15234375,3450677150,102
1.234375,2.537109375,-0.072265625,3450677150,102
0.080078125,2.42578125,0.73828125,3450677150,102
1.064453125,2.3671875,0.34765625,3450677150,102
1.080078125,2.39453125,0.408203125,3450677150,102
1.09765625,2.466796875,0.029296875,3450677150,102
1.11328125,2.5,-0.130859375,3450677150,102
1.130859375,2.537109375,-0.14453125,3450677150,102
1.09765625,2.412109375,-0.521484375,3450677150,102
1.11328125,2.451171875,-0.517578125,3450677150,102
1.04296875,2.517578125,-0.55859375,3450677150,102
1.146484375,2.5,12733.365234375,3450677150,102
-12.99609375,52.0078125,33.998046875,3450677150,102
5.00390625,45.009765625,34.498046875,3450677150,102
13.50390625,33.509765625,34.998046875,3450677150,102
18.50390625,5.009765625,33.498046875,3450677150,102
0.50390625,-20.990234375,33.998046875,3450677150,102
10.50390625,4.509765625,0.1328125,3450677150,102
2.451171875,-0.501953125,0.134765625,3450677150,102
2.486328125,-0.513671875,0.1328125,3450677150,102
2.494140625,-0.494140625,0.134765625,3450677150,102
2.529296875,-0.505859375,0.13671875,3450677150,102
2.515625,-0.546875,0.13671875,3450677150,102
2.798828125,-0.279296875,0.138671875,3450677150,102
2.806640625,-0.515625,0.12109375,3450677150,102
2.51171875,-0.26171875,0.123046875,3450677150,102
2.546875,-0.3515625,0.125,3450677150,102
2.58203125,-0.39453125,0.126953125,3450677150,102
12.509765625,33.498046875,-1.0,3450677150,102
4.009765625,33.998046875,-1.0,3450677150,102
18.509765625,34.498046875,-1.0,3450677150,102
-13.490234375,34.998046875,-1.0,3450677150,102
-25.990234375,35.498046875,-1.0,3450677150,102
-34.490234375,31.498046875,-0.5,3450677150,102
-34.490234375,31.998046875,-0.5,3450677150,102
-46.990234375,32.498046875,-0.5,3450677150,102
-59.490234375,32.998046875,-0.5,3450677150,102
60.009765625,33.498046875,-0.5,3450677150,102
60.509765625,33.998046875,-0.5,3450677150,102
-48.490234375,34.498046875,-0.5,3450677150,102
39.509765625,34.5,-0.5,3450677150,102
23.509765625,35.0,-0.5,3450677150,102
10.009765625,33.0,0.0,3450677150,102
46.5078125,33.501953125,0.0,3450677150,102
-15.994140625,34.490234375,0.0,3450677150,102
-30.998046875,31.98828125,0.5,3450677150,102
-8.4921875,34.998046875,1.5,3450677150,102
50.005859375,6.0078125,0.0,3450677150,102
0.080078125,2.53515625,-0.01171875,3550771031,104
0.2421875,2.53515625,-0.392578125,3550771031,104
0.328125,2.51171875,-0.6640625,3550771031,104
0.25,2.509765625,-0.83984375,3550771031,104
0.16796875,2.37890625,-1.263671875,3550771031,104
1.130859375,2.509765625,0.40234375,3550771031,104
0.07421875,2.37109375,0.015625,3550771031,104
0.158203125,2.513671875,0.294921875,3550771031,104
0.2421875,2.556640625,-0.224609375,3550771031,104
0.328125,2.54296875,-0.525390625,3550771031,104
0.33203125,2.564453125,-0.6171875,3550771031,104
0.337890625,2.587890625,-0.689453125,3550771031,104
0.078125,2.42578125,0.580078125,3550771031,104
0.158203125,2.4921875,0.439453125,3550771031,104
0.16015625,2.5625,0.216796875,3550771031,104
0.24609375,2.599609375,-0.17578125,3550771031,104
0.33203125,2.603515625,-0.42578125,3550771031,104
0.337890625,2.619140625,-0.55859375,3550771031,104
0.078125,2.404296875,0.662109375,3550771031,104
0.080078125,2.4609375,0.60546875,3550771031,104
0.16015625,2.525390625,0.490234375,3550771031,104
0.1640625,2.607421875,0.171875,3550771031,104
0.25,2.63671875,-0.236328125,3550771031,104
0.25390625,2.669921875,-0.3125,3550771031,104
0.080078125,2.4296875,0.724609375,3550771031,104
0.080078125,2.494140625,0.642578125,3550771031,104
0.1640625,2.6015625,0.2421875,3550771031,104
0.166015625,2.654296875,-0.037109375,3550771031,104
0.166015625,2.634765625,0.3203125,3550771031,104
1.234375,2.451171875,-0.654296875,3550771031,104
1.251953125,2.451171875,-0.791015625,3550771031,104
1.130859375,2.46875,-0.6015625,3550771031,104
1.234375,2.466796875,-0.59765625,3550771031,104
1.251953125,2.505859375,12733.40625,3550771031,104
-22.99609375,-7.4921875,33.99609375,3550771031,104
-16.49609375,-21.9921875,34.49609375,3550771031,104
-10.49609375,-36.4921875,34.99609375,3550771031,104
-2.99609375,-45.4921875,35.49609375,3550771031,104
5.50390625,-51.490234375,33.49609375,3550771031,104
-7.99609375,23.5078125,33.998046875,3550771031,104
-8.49609375,18.0078125,34.498046875,3550771031,104
7.50390625,0.509765625,34.998046875,3550771031,104
3.50390625,-19.490234375,32.99609375,3550771031,104
-24.49609375,39.5078125,33.498046875,3550771031,104
6.345703125,-0.373046875,0.130859375,3550771031,104
2.47265625,-0.392578125,0.1328125,3550771031,104
2.548828125,-0.390625,0.134765625,3550771031,104
2.595703125,-0.326171875,0.126953125,3550771031,104
2.421875,-0.201171875,0.12890625,3550771031,104
2.421875,-0.154296875,0.130859375,3550771031,104
2.494140625,-0.23046875,0.1328125,3550771031,104
2.5234375,-0.296875,0.123046875,3550771031,104
2.48828125,-0.650390625,0.125,3550771031,104
2.576171875,-0.435546875,0.126953125,3550771031,104
2.65234375,-0.158203125,0.12890625,3550771031,104
2.69921875,0.021484375,0.130859375,3550771031,104
2.50390625,-0.03515625,0.1328125,3550771031,104
2.541015625,-0.041015625,0.134765625,3550771031,104
2.578125,-0.056640625,0.12109375,3550771031,104
2.51953125,-0.169921875,0.123046875,3550771031,104
2.548828125,-0.3515625,0.125,3550771031,104
2.599609375,-0.265625,0.126953125,3550771031,104
2.6484375,-0.162109375,0.12890625,3550771031,104
2.68359375,-0.27734375,0.0234375,3550771031,104
1.208984375,2.263671875,0.23828125,3700648490,107
0.408203125,2.328125,-1.126953125,3700648490,107
0.416015625,2.435546875,-0.982421875,3700648490,107
0.421875,2.3671875,-1.228515625,3700648490,107
1.19921875,2.45703125,-0.19921875,3700648490,107
1.130859375,2.541015625,-0.04296875,3700648490,107
-8.853515625,40.009765625,31.5,3700648490,107
-50.99609375,-55.4921875,32.0,3700648490,107
-1.5,-56.9921875,32.99609375,3700648490,107
14.5,-37.990234375,33.49609375,3700648490,107
12.0,43.509765625,33.99609375,3700648490,107
-10.49609375,40.0078125,34.0,3700648490,107
-0.49609375,30.5078125,31.5,3700648490,107
7.5,4.009765625,32.498046875,3700648490,107
12.5,-11.490234375,32.99609375,3700648490,107
18.0,-34.490234375,33.49609375,3700648490,107
-5.0,-9.4921875,33.994140625,3700648490,107
2.421875,-0.005859375,0.1328125,3700648490,107
2.5,0.0859375,0.123046875,3700648490,107
2.576171875,0.09765625,0.125,3700648490,107
2.615234375,-0.130859375,0.126953125,3700648490,107
2.390625,-0.0625,0.12890625,3700648490,107
2.41796875,-0.228515625,0.130859375,3700648490,107
2.447265625,-0.291015625,0.1328125,3700648490,107
2.435546875,-0.328125,0.15625,3700648490,107
0.0,3.208984375,0.158203125,3700648490,107
0.0,3.2265625,0.126953125,3700648490,107
2.423828125,12655.330078125,2.0,3700648490,107
-61.9921875,33.998046875,2.0,3700648490,107
45.0078125,34.498046875,2.0,3700648490,107
19.5078125,33.498046875,2.5,3700648490,107
52.5078125,33.998046875,2.5,3700648490,107
38.509765625,32.498046875,-2.5,3700648490,107
48.5078125,0.126953125,-0.009765625,3700648490,107
0.27734375,0.12890625,-0.009765625,3700648490,107
0.18359375,0.130859375,-0.009765625,3700648490,107
-0.0859375,0.125,-0.0078125,3700648490,107
0.33203125,0.126953125,-0.0078125,3700648490,107
0.458984375,0.12890625,-0.0078125,3700648490,107
0.609375,0.130859375,-0.0078125,3700648490,107
0.60546875,0.12109375,-0.005859375,3700648490,107
-0.001953125,0.125,-0.005859375,3700648490,107
0.447265625,0.126953125,-0.005859375,3700648490,107
0.609375,0.12890625,-0.005859375,3700648490,107
33.501953125,-1.5,35.498046875,3700648490,107
34.00390625,-1.5,36.498046875,3700648490,107
31.0,-1.0,20.498046875,3700648490,107
32.998046875,-1.0,19.998046875,3700648490,107
33.501953125,-1.0,30.498046875,3700648490,107
34.0,-1.0,58.498046875,3700648490,107
34.5,-1.0,45.998046875,3700648490,107
32.5,-0.5,22.498046875,3700648490,107
33.0,-0.5,34.498046875,3700648490,107
33.5,-0.5,45.498046875,3700648490,107
34.498046875,-0.5,498.35546875,3700648490,107
0.134765625,-0.001953125,0.193359375,3700648490,107
0.123046875,0.0,0.025390625,3700648490,107
0.12890625,0.0,0.109375,3700648490,107
0.123046875,0.001953125,0.0390625,3700648490,107
0.130859375,0.001953125,0.271484375,3700648490,107
0.12890625,0.00390625,0.412109375,3700648490,107
0.126953125,0.005859375,0.125,3700648490,107
0.1328125,0.005859375,0.197265625,3700648490,107
0.0234375,0.0,-33.9375,3700648490,107
0.07421875,2.359375,-0.232421875,3800780699,109
0.076171875,2.396484375,-0.26953125,3800780699,109
0.15625,2.46875,-0.330078125,3800780699,109
0.080078125,2.49609375,0.443359375,3800780699,109
0.080078125,2.56640625,0.23046875,3800780699,109
0.08203125,2.61328125,-0.134765625,3800780699,109
0.083984375,2.5546875,-0.73046875,3800780699,109
0.1484375,2.3671875,-0.013671875,3800780699,109
0.150390625,2.408203125,-0.052734375,3800780699,109
0.076171875,2.453125,-0.04296875,3800780699,109
0.078125,2.490234375,-0.130859375,3800780699,109
0.080078125,2.3984375,0.818359375,3800780699,109
0.080078125,2.533203125,0.462890625,3800780699,109
0.1640625,2.5859375,0.373046875,3800780699,109
0.166015625,2.63671875,0.296875,3800780699,109
0.080078125,2.505859375,0.59375,3800780699,109
0.08203125,2.55859375,0.544921875,3800780699,109
0.166015625,2.6171875,0.443359375,3800780699,109
1.02734375,2.533203125,-0.18359375,3800780699,109
1.04296875,2.57421875,-0.15625,3800780699,109
1.02734375,2.537109375,0.1171875,3800780699,109
1.04296875,2.578125,-0.017578125,3800780699,109
1.05859375,2.609375,-0.201171875,3800780699,109
1.07421875,2.59765625,-0.548828125,3800780699,109
1.02734375,2.53515625,0.162109375,3800780699,109
1.04296875,2.578125,0.017578125,3800780699,109
1.05859375,2.61328125,-0.14453125,3800780699,109
1.07421875,2.626953125,-0.3828125,3800780699,109
1.08984375,2.65625,-0.443359375,3800780699,109
1.103515625,2.70703125,-0.359375,3800780699,109
0.998046875,2.68359375,-0.486328125,3800780699,109
1.01171875,2.734375,-0.421875,3800780699,109
1.02734375,2.771484375,-0.431640625,3800780699,109
0.908203125,2.697265625,12608.41796875,3800780699,109
-63.498046875,0.009765625,36.998046875,3800780699,109
-61.99609375,-60.990234375,35.998046875,3800780699,109
56.001953125,7.509765625,36.498046875,3800780699,109
62.501953125,-12.490234375,35.99609375,3800780699,109
-51.49609375,24.0,36.009765625,3800780699,109
26.50390625,20.001953125,36.509765625,3800780699,109
-16.5,-9.490234375,35.49609375,3800780699,109
0.00390625,57.0,35.509765625,3800780699,109
0.00390625,-39.5,36.009765625,3800780699,109
-17.5,-23.990234375,36.998046875,3800780699,109
2.962890625,-0.05859375,0.13671875,3800780699,109
0.0,2.81640625,0.138671875,3800780699,109
0.0,-2.89453125,0.140625,3800780699,109
0.0,-2.935546875,0.125,3800780699,109
2.416015625,0.234375,0.126953125,3800780699,109
2.419921875,0.2109375,0.123046875,3800780699,109
2.34765625,0.1796875,0.125,3800780699,109
2.4140625,0.248046875,0.126953125,3800780699,109
2.4453125,0.302734375,0.12109375,3800780699,109
2.470703125,0.5546875,0.123046875,3800780699,109
2.5703125,-0.080078125,0.125,3800780699,109
2.5859375,-0.375,0.126953125,3800780699,109
2.58984375,-0.57421875,0.12890625,3800780699,109
2.501953125,-1.01171875,0.12109375,3800780699,109
2.53515625,0.04296875,0.123046875,3800780699,109
2.56640625,-0.162109375,0.125,3800780699,109
2.587890625,-0.353515625,0.126953125,3800780699,109
2.595703125,-0.548828125,0.12890625,3800780699,109
2.630859375,-0.58203125,0.130859375,3800780699,109
2.68359375,-0.353515625,0.0234375,3800780699,109
0.158203125,2.419921875,-0.740234375,3900788408,111
0.2421875,2.49609375,-0.591796875,3900788408,111
0.328125,2.548828125,-0.498046875,3900788408,111
0.25,2.591796875,-0.541015625,3900788408,111
0.25390625,2.6875,-0.05078125,3900788408,111
0.2578125,2.7109375,-0.302734375,3900788408,111
994.716796875,-41.4921875,31.5,3900788408,111
16.5,50.009765625,32.0,3900788408,111
28.5,21.009765625,32.5,3900788408,111
39.0,14.009765625,33.0,3900788408,111
47.5,27.509765625,33.5,3900788408,111
57.0,48.009765625,34.0,3900788408,111
59.5,-11.990234375,32.0,3900788408,111
-20.498046875,-48.9921875,32.998046875,3900788408,111
35.0,-49.490234375,33.0,3900788408,111
46.0,-55.490234375,33.5,3900788408,111
47.5,-4.490234375,34.0,3900788408,111
2.630859375,0.8828125,0.123046875,3900788408,111
2.37890625,0.2265625,0.125,3900788408,111
2.41796875,0.21484375,0.126953125,3900788408,111
2.4609375,0.125,0.12890625,3900788408,111
2.69921875,-0.0234375,0.130859375,3900788408,111
2.69140625,-0.490234375,0.123046875,3900788408,111
2.37890625,0.44921875,0.125,3900788408,111
2.3828125,0.458984375,0.126953125,3900788408,111
2.423828125,0.453125,0.134765625,3900788408,111
1.6796875,2.15625,0.1328125,3900788408,111
2.498046875,12734.86328125,-4.0,3900788408,111
-15.990234375,35.49609375,-4.0,3900788408,111
-38.9921875,35.99609375,-4.0,3900788408,111
38.5078125,33.99609375,-3.5,3900788408,111
-49.9921875,34.49609375,-3.5,3900788408,111
-50.4921875,34.99609375,-3.5,3900788408,111
-36.9921875,49.74609375,-0.013671875,3900788408,111
-0.587890625,0.138671875,-0.013671875,3900788408,111
-0.65234375,0.130859375,-0.01171875,3900788408,111
-0.50390625,0.1328125,-0.01171875,3900788408,111
-0.529296875,0.134765625,-0.01171875,3900788408,111
-0.595703125,0.13671875,-0.01171875,3900788408,111
-0.642578125,0.138671875,-0.01171875,3900788408,111
-0.59765625,0.12890625,-0.009765625,3900788408,111
-0.263671875,0.130859375,-0.009765625,3900788408,111
-0.345703125,0.1328125,-0.009765625,3900788408,111
-0.3828125,0.134765625,-0.009765625,3900788408,111
35.498046875,-2.5,45.998046875,3900788408,111
33.49609375,-2.0,17.498046875,3900788408,111
33.998046875,-2.0,-58.501953125,3900788408,111
34.498046875,-2.0,-19.501953125,3900788408,111
34.998046875,-2.0,-52.501953125,3900788408,111
35.498046875,-2.0,22.498046875,3900788408,111
31.99609375,-1.5,20.998046875,3900788408,111
32.49609375,-1.5,44.998046875,3900788408,111
32.99609375,-1.5,46.498046875,3900788408,111
33.49609375,-1.5,21.498046875,3900788408,111
33.99609375,-1.5,59.998046875,3900788408,111
34.498046875,-1.5,-57.501953125,3900788408,111
31.498046875,-1.0,37.498046875,3900788408,111
31.99609375,-1.0,-13.001953125,3900788408,111
32.49609375,-1.0,-59.501953125,3900788408,111
32.99609375,-1.0,41.998046875,3900788408,111
33.49609375,-1.0,63.498046875,3900788408,111
33.99609375,-1.0,52.498046875,3900788408,111
34.498046875,-1.0,-24.501953125,3900788408,111
6.498046875,0.0,16.0,3900788408,111
0.158203125,2.482421875,0.494140625,4000777954,113
0.16015625,2.55859375,0.26171875,4000777954,113
0.1640625,2.61328125,-0.048828125,4000777954,113
0.166015625,2.626953125,-0.37890625,4000777954,113
0.337890625,2.630859375,-0.5,4000777954,113
1.19921875,2.451171875,-0.263671875,4000777954,113
994.716796875,42.0078125,31.998046875,4000777954,113
-39.0,-15.4921875,32.494140625,4000777954,113
10.0,-34.490234375,32.99609375,4000777954,113
18.5,-43.990234375,33.49609375,4000777954,113
-20.49609375,-52.4921875,33.998046875,4000777954,113
-11.99609375,-62.9921875,34.498046875,4000777954,113
-14.49609375,61.5078125,34.998046875,4000777954,113
4.50390625,45.509765625,31.998046875,4000777954,113
-28.998046875,-23.4921875,32.498046875,4000777954,113
29.5,-27.990234375,32.998046875,4000777954,113
32.0,21.009765625,33.498046875,4000777954,113
-18.99609375,-25.9921875,33.998046875,4000777954,113
-11.49609375,-55.9921875,34.498046875,4000777954,113
-3.49609375,60.0078125,34.998046875,4000777954,113
4.00390625,43.009765625,35.498046875,4000777954,113
11.50390625,28.509765625,31.498046875,4000777954,113
-47.99609375,40.5078125,31.5,4000777954,113
-38.49609375,43.5078125,32.0,4000777954,113
-28.99609375,38.5078125,32.5,4000777954,113
-32.99609375,-49.9921875,33.0,4000777954,113
-18.49609375,0.0078125,33.5,4000777954,113
0.00390625,-35.990234375,34.498046875,4000777954,113
-1.49609375,-49.4921875,34.998046875,4000777954,113
7.00390625,-58.990234375,35.498046875,4000777954,113
28.50390625,-45.990234375,31.998046875,4000777954,113
-33.498046875,-48.9921875,32.0,4000777954,113
-21.998046875,62.5078125,33.0,4000777954,113
-7.998046875,-20.4921875,49.740234375,4000777954,113
2.541015625,-0.01953125,0.1328125,4000777954,113
2.578125,0.013671875,0.134765625,4000777954,113
