-18.990234375,33.998046875,-0.5,2875873177,46
-5.490234375,34.498046875,-0.5,2875873177,46
-20.990234375,34.998046875,-0.5,2875873177,46
-2.490234375,35.0,-0.5,2875873177,46
36.509765625,35.5,-0.5,2875873177,46
20.009765625,33.0,0.0,2875873177,46
59.509765625,34.998046875,0.0,2875873177,46
26.509765625,32.501953125,0.5,2875873177,46
-32.9921875,33.49609375,0.5,2875873177,46
13.509765625,33.498046875,-1.0,2875873177,46
-20.990234375,32.99609375,-0.5,2875873177,46
-58.4921875,34.501953125,-0.5,2875873177,46
28.009765625,6.498046875,0.0,2875873177,46
0.158203125,2.486328125,0.4765625,2975665172,48
0.16015625,2.443359375,0.8046875,2975665172,48
0.08203125,2.44140625,0.943359375,2975665172,48
0.083984375,2.580078125,0.638671875,2975665172,48
0.16796875,2.6640625,0.408203125,2975665172,48
0.171875,2.734375,0.048828125,2975665172,48
12619.3046875,-58.990234375,31.498046875,2975665172,48
0.0,-25.490234375,31.5,2975665172,48
-0.5,29.0078125,32.501953125,2975665172,48
32.5,24.509765625,33.998046875,2975665172,48
57.0,-58.490234375,33.5,2975665172,48
28.5,-42.990234375,37.501953125,2975665172,48
0.005859375,1.5,33.48828125,2975665172,48
14.99609375,-35.490234375,33.99609375,2975665172,48
23.99609375,-17.490234375,34.49609375,2975665172,48
44.99609375,9.509765625,31.998046875,2975665172,48
-16.50390625,-58.4921875,32.0,2975665172,48
-3.50390625,33.5078125,32.5,2975665172,48
37.0,58.509765625,33.0,2975665172,48
37.0,-4.490234375,33.5,2975665172,48
26.49609375,-5.990234375,34.49609375,2975665172,48
39.49609375,8.509765625,34.998046875,2975665172,48
12.5,-19.4921875,31.005859375,2975665172,48
-35.00390625,-5.9921875,31.5,2975665172,48
-23.50390625,-13.4921875,32.0,2975665172,48
15.5,4.009765625,32.501953125,2975665172,48
35.5,-47.490234375,33.0,2975665172,48
47.0,38.509765625,0.130859375,2975665172,48
2.705078125,-0.357421875,0.1328125,2975665172,48
2.654296875,-0.455078125,0.12109375,2975665172,48
2.39453125,0.2578125,0.123046875,2975665172,48
2.4140625,0.404296875,0.125,2975665172,48
2.44921875,0.43359375,0.130859375,2975665172,48
2.626953125,33.373046875,-1.5,2975665172,48
-45.990234375,33.501953125,-1.5,2975665172,48
-43.4921875,34.005859375,-1.5,2975665172,48
-32.99609375,32.0078125,-1.0,2975665172,48
2.509765625,33.001953125,-1.0,2975665172,48
27.0078125,33.99609375,-1.0,2975665172,48
13.505859375,34.0078125,-1.0,2975665172,48
55.001953125,34.509765625,-1.0,2975665172,48
30.509765625,31.498046875,-0.5,2975665172,48
57.0078125,31.99609375,-0.5,2975665172,48
-12.490234375,32.0,-0.5,2975665172,48
-53.9921875,33.5,-0.5,2975665172,48
37.509765625,34.498046875,-0.5,2975665172,48
23.0078125,6.494140625,0.0,2975665172,48
0.15625,2.408203125,0.6328125,3075904715,50
0.158203125,2.443359375,0.6640625,3075904715,50
0.080078125,2.45703125,0.775390625,3075904715,50
0.24609375,2.384765625,-1.05078125,3075904715,50
0.25,2.61328125,-0.427734375,3075904715,50
0.16796875,2.6953125,0.01953125,3075904715,50
41.671875,32.509765625,34.001953125,3075904715,50
28.49609375,15.509765625,32.001953125,3075904715,50
28.0,-36.490234375,32.998046875,3075904715,50
39.5,-11.990234375,33.498046875,3075904715,50
49.0,31.009765625,33.5,3075904715,50
56.0,-49.990234375,34.0,3075904715,50
-61.0,-45.490234375,34.5,3075904715,50
59.49609375,-35.990234375,35.0,3075904715,50
54.49609375,55.009765625,32.5,3075904715,50
38.5,48.009765625,33.0,3075904715,50
47.0,61.009765625,33.5,3075904715,50
2.734375,0.041015625,0.1328125,3075904715,50
2.7734375,0.216796875,0.134765625,3075904715,50
2.79296875,0.400390625,0.13671875,3075904715,50
2.6875,0.421875,0.12890625,3075904715,50
2.68359375,-0.244140625,0.130859375,3075904715,50
2.724609375,-0.248046875,0.1328125,3075904715,50
2.7734375,-0.189453125,0.119140625,3075904715,50
2.361328125,0.3984375,0.12109375,3075904715,50
2.41015625,0.470703125,0.123046875,3075904715,50
2.447265625,0.484375,0.119140625,3075904715,50
2.486328125,-0.12890625,0.12109375,3075904715,50
2.283203125,0.841796875,0.123046875,3075904715,50
2.33203125,0.88671875,0.125,3075904715,50
2.46875,0.578125,0.126953125,3075904715,50
2.58984375,0.1484375,0.130859375,3075904715,50
2.642578125,0.25,0.1328125,3075904715,50
2.685546875,30.697265625,-0.5,3075904715,50
-53.4921875,31.0,-0.5,3075904715,50
-55.490234375,31.5,-0.5,3075904715,50
-61.490234375,32.0,-0.5,3075904715,50
58.509765625,32.5,-0.5,3075904715,50
-32.990234375,33.0,-0.5,3075904715,50
9.009765625,33.501953125,-0.5,3075904715,50
-28.990234375,34.0,-0.5,3075904715,50
-35.990234375,32.0,0.0,3075904715,50
-0.4921875,33.501953125,0.0,3075904715,50
40.009765625,34.0,0.0,3075904715,50
-1.115234375,0.119140625,-0.00390625,3075904715,50
0.841796875,0.12109375,-0.00390625,3075904715,50
-0.208984375,0.123046875,-0.00390625,3075904715,50
-0.24609375,0.12890625,-0.001953125,3075904715,50
-0.7265625,0.0234375,1.0,3075904715,50
0.408203125,2.552734375,-0.41015625,3175817067,52
0.33203125,2.587890625,-0.51171875,3175817067,52
0.25390625,2.669921875,0.310546875,3175817067,52
0.0859375,2.732421875,0.201171875,3175817067,52
0.087890625,2.771484375,0.216796875,3175817067,52
1.822265625,0.0,2.6015625,3175817067,52
15.345703125,41.0,31.009765625,3175817067,52
8.0,7.009765625,32.0,3175817067,52
-2.00390625,-5.9921875,32.5,3175817067,52
14.0,-49.490234375,33.49609375,3175817067,52
27.99609375,44.509765625,33.5,3175817067,52
39.49609375,-13.490234375,34.498046875,3175817067,52
42.99609375,-38.490234375,38.498046875,3175817067,52
0.005859375,-35.0,30.509765625,3175817067,52
-2.5,2.0078125,31.0,3175817067,52
7.5,-19.990234375,31.998046875,3175817067,52
-21.50390625,33.0078125,32.001953125,3175817067,52
2.5,0.419921875,0.126953125,3175817067,52
2.529296875,0.474609375,0.12890625,3175817067,52
2.58984375,0.361328125,0.130859375,3175817067,52
2.615234375,0.28515625,0.1328125,3175817067,52
2.658203125,0.248046875,0.119140625,3175817067,52
2.494140625,0.033203125,0.12109375,3175817067,52
2.291015625,0.82421875,0.123046875,3175817067,52
2.37890625,0.67578125,0.125,3175817067,52
2.458984375,0.51171875,0.126953125,3175817067,52
2.505859375,0.4765625,0.12890625,3175817067,52
2.54296875,0.49609375,0.130859375,3175817067,52
2.583984375,0.484375,0.1328125,3175817067,52
2.603515625,0.451171875,0.123046875,3175817067,52
2.337890625,0.724609375,0.125,3175817067,52
2.44921875,0.560546875,0.130859375,3175817067,52
2.681640625,-0.537109375,0.1328125,3175817067,52
2.71875,12732.9765625,-0.5,3175817067,52
35.009765625,34.5,-0.5,3175817067,52
9.509765625,35.0,-0.5,3175817067,52
0.509765625,32.0,0.0,3175817067,52
-8.9921875,32.5,0.0,3175817067,52
36.0078125,33.00390625,0.0,3175817067,52
54.009765625,34.498046875,0.0,3175817067,52
-0.490234375,37.99609375,0.0,3175817067,52
-9.994140625,38.48828125,0.0,3175817067,52
-16.494140625,32.48828125,0.5,3175817067,52
42.5078125,32.99609375,0.5,3175817067,52
8.009765625,33.001953125,0.5,3175817067,52
-21.990234375,33.5,0.5,3175817067,52
-8.490234375,34.001953125,0.5,3175817067,52
-38.490234375,38.001953125,0.5,3175817067,52
35.005859375,31.490234375,1.0,3175817067,52
-50.9921875,32.501953125,1.0,3175817067,52
-30.9921875,33.494140625,1.0,3175817067,52
-7.494140625,33.990234375,1.0,3175817067,52
26.005859375,30.5078125,1.5,3175817067,52
30.5078125,31.00390625,1.5,3175817067,52
-13.990234375,34.498046875,-1.0,3175817067,52
-21.490234375,34.5,-0.5,3175817067,52
10.009765625,35.49609375,-0.5,3175817067,52
-21.990234375,6.49609375,0.0,3175817067,52
0.158203125,2.4921875,0.44140625,3276211741,54
-0.8046875,2.412109375,0.421875,3276211741,54
-0.736328125,2.474609375,0.4375,3276211741,54
-0.748046875,2.513671875,0.439453125,3276211741,54
0.16796875,2.681640625,-0.2578125,3276211741,54
-0.771484375,2.615234375,0.28515625,3276211741,54
12612.216796875,-60.990234375,34.5,3276211741,54
43.99609375,-62.490234375,31.5,3276211741,54
-22.00390625,-19.9921875,32.0,3276211741,54
-10.50390625,-28.4921875,32.5,3276211741,54
6.99609375,-34.490234375,33.0,3276211741,54
6.99609375,-14.490234375,33.5,3276211741,54
18.99609375,-25.490234375,34.0,3276211741,54
36.99609375,-30.990234375,34.5,3276211741,54
44.49609375,-15.490234375,32.0,3276211741,54
-21.00390625,22.5078125,32.501953125,3276211741,54
-7.50390625,8.5078125,33.001953125,3276211741,54
2.44921875,0.759765625,0.130859375,3276211741,54
2.46484375,0.837890625,0.1328125,3276211741,54
2.529296875,0.765625,0.12890625,3276211741,54
2.591796875,-0.47265625,0.130859375,3276211741,54
2.625,-0.388671875,0.1328125,3276211741,54
2.677734375,-0.291015625,0.134765625,3276211741,54
2.70703125,-0.369140625,0.12890625,3276211741,54
2.59375,-0.33203125,0.130859375,3276211741,54
2.6328125,-0.337890625,0.1328125,3276211741,54
2.67578125,-0.302734375,0.134765625,3276211741,54
2.716796875,-0.29296875,0.130859375,3276211741,54
2.654296875,-0.32421875,0.1328125,3276211741,54
2.68359375,-0.23828125,0.134765625,3276211741,54
2.7265625,-0.193359375,0.1328125,3276211741,54
2.685546875,-0.205078125,0.1328125,3276211741,54
2.462890625,-1.18359375,0.134765625,3276211741,54
2.6953125,12734.3515625,-2.5,3276211741,54
40.509765625,34.5,-2.5,3276211741,54
53.509765625,35.0,-2.5,3276211741,54
-61.490234375,34.5,-2.0,3276211741,54
34.509765625,33.001953125,-1.5,3276211741,54
49.509765625,33.5,-1.5,3276211741,54
42.509765625,34.0,-1.5,3276211741,54
62.009765625,34.5,-1.5,3276211741,54
-51.990234375,31.0,-1.0,3276211741,54
35.509765625,32.5,-1.0,3276211741,54
-17.990234375,33.498046875,-1.0,3276211741,54
0.275390625,0.130859375,-0.00390625,3276211741,54
0.232421875,0.1328125,-0.00390625,3276211741,54
0.333984375,0.1484375,-0.00390625,3276211741,54
2.599609375,0.119140625,-0.001953125,3276211741,54
0.302734375,0.12109375,-0.001953125,3276211741,54
0.29296875,0.123046875,-0.001953125,3276211741,54
0.326171875,0.125,-0.001953125,3276211741,54
0.0234375,0.126953125,-0.001953125,3276211741,54
-0.134765625,0.12890625,-0.001953125,3276211741,54
-0.185546875,0.130859375,-0.001953125,3276211741,54
0.41015625,0.1328125,12666.498046875,3276211741,54
37.5,-0.5,-55.501953125,3276211741,54
38.009765625,-0.5,-50.001953125,3276211741,54
32.509765625,0.0,21.0,3276211741,54
33.49609375,0.0,26.0,3276211741,54
33.5,0.0,35.0,3276211741,54
33.49609375,0.5,30.5,3276211741,54
33.5,0.5,49.5,3276211741,54
33.00390625,1.0,14.5,3276211741,54
6.00390625,0.0,16.0,3276211741,54
0.158203125,2.509765625,0.333984375,3375617809,56
0.2421875,2.515625,0.501953125,3375617809,56
0.166015625,2.634765625,0.314453125,3375617809,56
-0.759765625,2.591796875,0.013671875,3375617809,56
-0.857421875,2.591796875,0.248046875,3375617809,56
-0.869140625,2.623046875,0.322265625,3375617809,56
12611.6171875,-32.490234375,31.0,3375617809,56
6.5,42.009765625,31.5,3375617809,56
16.5,50.009765625,32.5,3375617809,56
39.5,3.509765625,33.0,3375617809,56
48.0,60.509765625,33.5,3375617809,56
51.5,-9.490234375,34.0,3375617809,56
56.99609375,63.009765625,31.0,3375617809,56
2.0,-40.990234375,31.5,3375617809,56
11.0,-30.490234375,32.5,3375617809,56
38.0,40.509765625,33.0,3375617809,56
41.5,-15.990234375,32.5,3375617809,56
18.49609375,36.009765625,33.0,3375617809,56
29.49609375,11.509765625,33.5,3375617809,56
33.99609375,7.509765625,34.0,3375617809,56
28.99609375,14.009765625,31.5,3375617809,56
-16.50390625,-58.4921875,32.5,3375617809,56
31.5,24.009765625,33.498046875,3375617809,56
22.99609375,36.509765625,33.5,3375617809,56
24.99609375,50.009765625,34.0,3375617809,56
33.99609375,63.009765625,34.5,3375617809,56
33.99609375,-45.490234375,31.5,3375617809,56
-32.00390625,-55.9921875,0.126953125,3375617809,56
2.529296875,-0.3359375,0.12890625,3375617809,56
2.578125,0.783203125,0.134765625,3375617809,56
1.494140625,-2.392578125,0.126953125,3375617809,56
2.529296875,-0.779296875,0.12890625,3375617809,56
2.40234375,1.205078125,0.130859375,3375617809,56
1.71484375,106.130859375,-1.0,3375617809,56
15.005859375,32.5078125,-0.5,3375617809,56
-24.490234375,33.0,-0.5,3375617809,56
-53.490234375,33.5,-0.5,3375617809,56
-16.994140625,34.005859375,-0.5,3375617809,56
-64.0,34.98828125,-0.5,3375617809,56
49.505859375,6.490234375,0.0,3375617809,56
0.16015625,2.5703125,0.080078125,3525675664,59
-0.654296875,2.5078125,0.373046875,3525675664,59
-0.748046875,2.541015625,0.234375,3525675664,59
-0.67578125,2.6015625,0.259765625,3525675664,59
-0.771484375,2.62890625,0.1015625,3525675664,59
-0.6953125,2.693359375,0.005859375,3525675664,59
126924.20703125,-46.990234375,31.998046875,3525675664,59
17.5,-30.990234375,32.498046875,3525675664,59
-19.00390625,42.0078125,32.501953125,3525675664,59
15.99609375,-58.490234375,33.0,3525675664,59
50.5,26.509765625,33.5,3525675664,59
52.0,-15.490234375,31.5,3525675664,59
18.5,-2.490234375,32.498046875,3525675664,59
-31.50390625,-46.9921875,32.501953125,3525675664,59
39.0,23.009765625,33.0,3525675664,59
50.0,37.009765625,33.5,3525675664,59
53.0,-17.490234375,32.5,3525675664,59
38.5,-38.490234375,32.498046875,3525675664,59
28.5,26.509765625,32.5,3525675664,59
38.5,52.509765625,33.0,3525675664,59
47.5,-61.990234375,33.5,3525675664,59
37.49609375,26.009765625,34.498046875,3525675664,59
49.99609375,41.509765625,34.998046875,3525675664,59
63.99609375,-47.490234375,32.498046875,3525675664,59
22.0,-25.990234375,32.5,3525675664,59
31.0,-14.490234375,33.0,3525675664,59
34.49609375,-26.490234375,33.998046875,3525675664,59
38.49609375,-39.490234375,34.498046875,3525675664,59
49.49609375,-30.490234375,34.998046875,3525675664,59
59.99609375,-1.990234375,32.498046875,3525675664,59
-7.5,34.5078125,32.99609375,3525675664,59
27.5,4.509765625,34.501953125,3525675664,59
5.5,-61.990234375,31.50390625,3525675664,59
-58.50390625,-3.9921875,0.3203125,3525675664,59
2.591796875,-0.3359375,0.123046875,3525675664,59
2.109375,1.29296875,0.125,3525675664,59
2.6015625,-0.28125,0.126953125,3525675664,59
2.435546875,0.546875,0.12890625,3525675664,59
2.560546875,-0.52734375,0.130859375,3525675664,59
2.734375,0.076171875,0.134765625,3525675664,59
2.78515625,-0.1171875,0.125,3525675664,59
2.345703125,-0.208984375,0.126953125,3525675664,59
2.61328125,0.4609375,0.0234375,3525675664,59
0.1640625,2.61328125,0.013671875,3625658094,61
0.166015625,2.654296875,-0.0390625,3625658094,61
-0.84375,2.384765625,0.94140625,3625658094,61
0.0,2.740234375,0.08203125,3625658094,61
0.0,2.7734375,-0.216796875,3625658094,61
1.822265625,0.0,2.642578125,3625658094,61
1.845703125,0.0,2.74609375,3625658094,61
0.158203125,2.515625,0.2890625,3625658094,61
-0.724609375,2.306640625,0.89453125,3625658094,61
0.1640625,2.6015625,0.24609375,3625658094,61
0.166015625,2.638671875,0.283203125,3625658094,61
0.16796875,2.638671875,0.544921875,3625658094,61
-0.599609375,2.673828125,0.015625,3625658094,61
-0.521484375,2.724609375,0.1953125,3625658094,61
1.822265625,0.0,2.80859375,3625658094,61
1.845703125,0.0,2.880859375,3625658094,61
0.166015625,2.62109375,0.41015625,3625658094,61
0.16796875,2.615234375,0.65234375,3625658094,61
-0.599609375,2.662109375,0.251953125,3625658094,61
-0.609375,2.6875,0.380859375,3625658094,61
1.7265625,0.0,3.01953125,3625658094,61
1.748046875,0.0,3.103515625,3625658094,61
0.16796875,2.693359375,0.06640625,3625658094,61
0.171875,2.732421875,0.1328125,3625658094,61
0.26171875,2.74609375,0.359375,3625658094,61
0.083984375,2.6484375,0.2109375,3625658094,61
0.16796875,2.68359375,0.251953125,3625658094,61
0.171875,2.716796875,34.310546875,3625658094,61
62.5,-19.490234375,32.0,3625658094,61
2.49609375,-41.990234375,33.498046875,3625658094,61
-9.0,-18.4921875,34.494140625,3625658094,61
34.99609375,15.009765625,37.501953125,3625658094,61
14.5,-25.494140625,38.48828125,3625658094,61
-36.5,9.505859375,49.14453125,3625658094,61
2.265625,0.626953125,0.123046875,3625658094,61
2.572265625,-0.04296875,0.125,3625658094,61
2.509765625,0.10546875,0.12890625,3625658094,61
2.587890625,0.111328125,0.130859375,3625658094,61
2.548828125,0.97265625,0.146484375,3625658094,61
1.982421875,-2.310546875,0.1484375,3625658094,61
2.220703125,-2.15625,0.12890625,3625658094,61
2.5625,0.384765625,0.146484375,3625658094,61
2.193359375,-2.111328125,0.1484375,3625658094,61
2.419921875,1133.0703125,2.001953125,3625658094,61
-0.564453125,2.37890625,0.8125,3725988635,63
-0.654296875,2.267578125,1.1328125,3725988635,63
0.166015625,2.634765625,-0.310546875,3725988635,63
0.16796875,2.67578125,-0.314453125,3725988635,63
0.0,2.70703125,-0.423828125,3725988635,63
-0.609375,2.701171875,0.259765625,3725988635,63
126962.35546875,-41.9921875,32.001953125,3725988635,63
-40.50390625,-6.4921875,32.501953125,3725988635,63
40.0,-23.490234375,33.498046875,3725988635,63
51.0,-17.990234375,33.998046875,3725988635,63
56.498046875,18.509765625,34.0,3725988635,63
49.99609375,12.009765625,31.5,3725988635,63
52.99609375,53.5078125,32.00390625,3725988635,63
63.99609375,31.5078125,32.50390625,3725988635,63
40.5,-2.990234375,33.498046875,3725988635,63
51.0,22.009765625,33.5,3725988635,63
49.49609375,12.509765625,34.0,3725988635,63
49.49609375,25.509765625,33.5,3725988635,63
46.99609375,62.009765625,34.0,3725988635,63
57.99609375,51.009765625,34.5,3725988635,63
-59.50390625,51.009765625,35.0,3725988635,63
-56.00390625,-56.490234375,33.5,3725988635,63
48.49609375,42.009765625,34.0,3725988635,63
57.49609375,56.509765625,34.5,3725988635,63
61.99609375,-55.490234375,33.5,3725988635,63
49.998046875,-32.990234375,34.0,3725988635,63
49.998046875,11.509765625,32.501953125,3725988635,63
21.0,-27.990234375,33.49609375,3725988635,63
42.5,21.009765625,33.998046875,3725988635,63
42.99609375,-50.990234375,34.498046875,3725988635,63
49.49609375,-39.490234375,31.0,3725988635,63
3.5,61.009765625,31.5,3725988635,63
14.5,-56.990234375,32.0,3725988635,63
8.5,-28.490234375,49.736328125,3725988635,63
2.62890625,-0.365234375,0.12890625,3725988635,63
2.685546875,-0.216796875,0.130859375,3725988635,63
2.7265625,0.267578125,0.1328125,3725988635,63
2.65234375,0.576171875,0.12109375,3725988635,63
2.474609375,0.548828125,0.123046875,3725988635,63
2.576171875,0.009765625,0.125,3725988635,63
2.580078125,-0.37109375,0.126953125,3725988635,63
2.6484375,-0.181640625,0.12890625,3725988635,63
2.6953125,-0.021484375,0.130859375,3725988635,63
2.697265625,0.453125,0.146484375,3725988635,63
-50.5,38.009765625,-0.5,3725988635,63
-41.5,32.009765625,0.0,3725988635,63
-15.990234375,33.99609375,0.0,3725988635,63
-40.490234375,32.0,0.5,3725988635,63
-63.990234375,32.998046875,0.5,3725988635,63
-55.9921875,32.501953125,1.0,3725988635,63
-30.4921875,33.001953125,1.0,3725988635,63
-58.490234375,37.5,-0.5,3725988635,63
53.5078125,38.490234375,-0.5,3725988635,63
-41.9921875,6.490234375,0.0,3725988635,63
0.158203125,2.517578125,0.263671875,3826152400,65
0.080078125,2.546875,0.380859375,3826152400,65
0.24609375,2.55859375,0.501953125,3826152400,65
0.166015625,2.619140625,0.423828125,3826152400,65
0.16796875,2.630859375,0.580078125,3826152400,65
-0.771484375,2.599609375,-0.39453125,3826152400,65
12735.216796875,20.009765625,34.998046875,3826152400,65
38.99609375,-14.990234375,35.498046875,3826152400,65
46.49609375,60.009765625,31.0,3826152400,65
-37.50390625,32.5078125,31.501953125,3826152400,65
-36.50390625,42.0078125,32.001953125,3826152400,65
8.5,36.509765625,32.501953125,3826152400,65
-15.0,-10.4921875,33.494140625,3826152400,65
23.99609375,-1.990234375,33.998046875,3826152400,65
33.49609375,-25.990234375,34.498046875,3826152400,65
40.99609375,-63.990234375,34.998046875,3826152400,65
-52.0,-33.990234375,32.5,3826152400,65
2.521484375,0.390625,0.12890625,3826152400,65
2.61328125,0.025390625,0.130859375,3826152400,65
2.630859375,0.01171875,0.1328125,3826152400,65
2.66796875,-0.08984375,0.134765625,3826152400,65
2.76171875,0.57421875,0.12890625,3826152400,65
2.61328125,-0.009765625,0.130859375,3826152400,65
2.654296875,0.041015625,0.1328125,3826152400,65
2.66796875,0.0546875,0.1328125,3826152400,65
2.744140625,-0.115234375,0.134765625,3826152400,65
2.767578125,-0.17578125,0.1328125,3826152400,65
2.755859375,12656.837890625,-2.0,3826152400,65
-42.490234375,35.498046875,-2.0,3826152400,65
-24.490234375,32.998046875,-1.5,3826152400,65
40.009765625,33.498046875,-1.5,3826152400,65
41.009765625,33.998046875,-1.5,3826152400,65
59.009765625,34.498046875,-1.5,3826152400,65
27.009765625,0.134765625,-0.005859375,3826152400,65
-0.080078125,0.12109375,-0.00390625,3826152400,65
0.31640625,0.123046875,-0.00390625,3826152400,65
0.34765625,0.125,-0.00390625,3826152400,65
-0.115234375,0.126953125,-0.00390625,3826152400,65
-0.30078125,0.12890625,-0.00390625,3826152400,65
-0.17578125,0.130859375,-0.00390625,3826152400,65
0.119140625,0.1328125,-0.00390625,3826152400,65
0.1640625,0.134765625,-0.00390625,3826152400,65
-0.046875,0.13671875,-0.00390625,3826152400,65
-0.06640625,0.138671875,-0.00390625,3826152400,65
0.00390625,0.12109375,-0.001953125,3826152400,65
0.5078125,0.123046875,-0.001953125,3826152400,65
0.658203125,0.125,-0.001953125,3826152400,65
0.03125,0.126953125,-0.001953125,3826152400,65
-0.1171875,0.12890625,-0.001953125,3826152400,65
0.05078125,0.130859375,-0.001953125,3826152400,65
0.384765625,0.1328125,-0.001953125,3826152400,65
-0.123046875,0.134765625,-0.001953125,3826152400,65
0.107421875,0.13671875,-0.001953125,3826152400,65
0.12890625,0.138671875,-0.001953125,3826152400,65
0.189453125,0.12109375,0.0,3826152400,65
0.71484375,0.123046875,0.0,3826152400,65
0.60546875,0.12890625,0.0,3826152400,65
-0.455078125,0.130859375,0.0,3826152400,65
0.732421875,0.1328125,0.0,3826152400,65
0.75390625,0.134765625,0.0,3826152400,65
1.01171875,0.125,0.001953125,3826152400,65
0.455078125,0.126953125,0.001953125,3826152400,65
0.296875,0.12890625,0.001953125,3826152400,65
1.572265625,0.0234375,0.0,3826152400,65
0.158203125,2.53125,0.005859375,3925995312,67
0.16015625,2.572265625,0.01171875,3925995312,67
0.1640625,2.61328125,-0.005859375,3925995312,67
0.166015625,2.65234375,-0.068359375,3925995312,67
0.16796875,2.677734375,-0.3046875,3925995312,67
-0.685546875,2.548828125,0.736328125,3925995312,67
12722.8046875,62.509765625,31.001953125,3925995312,67
4.0,56.509765625,31.5,3925995312,67
14.0,60.509765625,32.0,3925995312,67
25.5,-58.990234375,32.5,3925995312,67
15.99609375,57.509765625,33.498046875,3925995312,67
45.5,-40.490234375,33.5,3925995312,67
34.99609375,45.509765625,34.498046875,3925995312,67
19.99609375,-21.490234375,31.99609375,3925995312,67
8.0,-19.490234375,33.0,3925995312,67
34.49609375,23.509765625,33.5,3925995312,67
32.99609375,-31.490234375,34.498046875,3925995312,67
2.634765625,-0.19921875,0.134765625,3925995312,67
2.6484375,0.09765625,0.126953125,3925995312,67
2.529296875,0.478515625,0.12890625,3925995312,67
2.548828125,0.462890625,0.126953125,3925995312,67
2.51171875,0.447265625,0.12890625,3925995312,67
2.5390625,0.515625,0.130859375,3925995312,67
2.59375,0.560546875,0.126953125,3925995312,67
2.4921875,0.544921875,0.12890625,3925995312,67
2.541015625,0.615234375,0.130859375,3925995312,67
2.55078125,0.63671875,0.130859375,3925995312,67
2.619140625,-43.95703125,-2.0,3925995312,67
57.509765625,34.5,-2.0,3925995312,67
35.009765625,32.5,-1.5,3925995312,67
-49.990234375,33.0,-1.5,3925995312,67
-2.490234375,33.5,-1.5,3925995312,67
42.509765625,34.0,-1.5,3925995312,67
-54.490234375,0.134765625,-0.005859375,3925995312,67
0.345703125,0.13671875,-0.005859375,3925995312,67
0.552734375,0.126953125,-0.00390625,3925995312,67
0.29296875,0.12890625,-0.00390625,3925995312,67
0.064453125,0.130859375,-0.00390625,3925995312,67
0.05078125,0.1328125,-0.00390625,3925995312,67
0.146484375,0.134765625,-0.00390625,3925995312,67
0.248046875,0.125,-0.001953125,3925995312,67
-0.44921875,0.126953125,-0.001953125,3925995312,67
-0.537109375,0.12890625,-0.001953125,3925995312,67
0.357421875,0.130859375,-0.001953125,3925995312,67
34.0,-0.5,1.498046875,3925995312,67
34.5,-0.5,-58.001953125,3925995312,67
33.5,0.0,43.5,3925995312,67
32.99609375,0.5,18.0,3925995312,67
33.501953125,0.5,51.5,3925995312,67
34.0,0.5,37.5,3925995312,67
33.001953125,1.5,8.0,3925995312,67
33.994140625,-2.0,10.998046875,3925995312,67
33.99609375,-1.5,24.498046875,3925995312,67
32.50390625,-0.5,27.498046875,3925995312,67
6.001953125,0.0,11.5625,3925995312,67
0.158203125,2.525390625,0.16796875,4026025664,69
0.16015625,2.568359375,0.130859375,4026025664,69
0.08203125,2.59375,0.345703125,4026025664,69
0.083984375,2.6484375,0.21875,4026025664,69
0.083984375,2.69921875,0.0078125,4026025664,69
-0.599609375,2.625,0.513671875,4026025664,69
12619.978515625,1.009765625,34.501953125,4026025664,69
51.99609375,52.009765625,35.0,4026025664,69
48.49609375,-23.990234375,31.498046875,4026025664,69
2.5,-44.490234375,31.5,4026025664,69
12.5,-38.490234375,32.0,4026025664,69
26.0,39.009765625,32.5,4026025664,69
31.5,36.009765625,33.498046875,4026025664,69
14.99609375,12.009765625,33.501953125,4026025664,69
27.99609375,-40.490234375,34.0,4026025664,69
38.99609375,-44.990234375,34.5,4026025664,69
43.49609375,-57.990234375,35.0,4026025664,69
46.99609375,51.509765625,32.5,4026025664,69
36.5,38.509765625,33.0,4026025664,69
46.5,50.509765625,33.5,4026025664,69
16.99609375,22.009765625,34.001953125,4026025664,69
27.49609375,21.009765625,34.501953125,4026025664,69
43.49609375,-7.490234375,35.0,4026025664,69
43.49609375,-40.990234375,33.0,4026025664,69
11.99609375,-3.490234375,33.5,4026025664,69
18.99609375,12.009765625,34.001953125,4026025664,69
14.49609375,45.009765625,33.501953125,4026025664,69
40.99609375,54.509765625,49.93359375,4026025664,69
2.62890625,-0.154296875,0.130859375,4026025664,69
2.662109375,-0.259765625,0.1328125,4026025664,69
2.705078125,-0.220703125,0.134765625,4026025664,69
2.7265625,-0.189453125,0.130859375,4026025664,69
2.681640625,-0.232421875,0.1328125,4026025664,69
2.73046875,12656.8828125,-1.5,4026025664,69
-6.490234375,35.498046875,-1.5,4026025664,69
-4.490234375,32.498046875,-1.0,4026025664,69
-7.990234375,32.998046875,-1.0,4026025664,69
-4.490234375,33.498046875,-1.0,4026025664,69
-43.990234375,33.998046875,-1.0,4026025664,69
12.509765625,34.001953125,-1.0,4026025664,69
-30.490234375,34.5,-1.0,4026025664,69
-35.990234375,32.0,-0.5,4026025664,69
18.009765625,32.5,-0.5,4026025664,69
17.009765625,33.0,-0.5,4026025664,69
-0.087890625,0.130859375,-0.001953125,4026025664,69
-0.373046875,0.1328125,-0.001953125,4026025664,69
0.7421875,0.134765625,-0.001953125,4026025664,69
0.73046875,0.12890625,0.001953125,4026025664,69
-0.609375,0.130859375,0.001953125,4026025664,69
-1.03515625,0.126953125,0.00390625,4026025664,69
-0.453125,0.12890625,0.00390625,4026025664,69
0.201171875,0.130859375,0.00390625,4026025664,69
-0.673828125,0.1328125,0.00390625,4026025664,69
-1.158203125,0.130859375,-0.00390625,4026025664,69
-0.599609375,0.130859375,-0.001953125,4026025664,69
0.833984375,0.1328125,-0.001953125,4026025664,69
-0.458984375,0.134765625,-0.001953125,4026025664,69
-0.439453125,0.0234375,0.0,4026025664,69
0.158203125,2.525390625,0.16015625,4125773589,71
0.16015625,2.56640625,0.173828125,4125773589,71
0.24609375,2.60546875,-0.056640625,4125773589,71
0.166015625,2.654296875,0.025390625,4125773589,71
0.16796875,2.69140625,0.111328125,4125773589,71
0.171875,2.728515625,0.197265625,4125773589,71
-0.869140625,2.5,-0.857421875,4125773589,71
0.15625,2.46484375,0.35546875,4125773589,71
0.158203125,2.509765625,0.322265625,4125773589,71
0.16015625,2.55078125,0.33203125,4125773589,71
0.08203125,2.583984375,0.408203125,4125773589,71
0.166015625,2.595703125,0.55078125,4125773589,71
-0.84375,2.5625,0.095703125,4125773589,71
-0.0859375,2.564453125,-0.96484375,4125773589,71
-0.521484375,2.720703125,-0.24609375,4125773589,71
-0.705078125,2.732421875,-0.033203125,4125773589,71
0.158203125,2.490234375,0.453125,4125773589,71
9.0,-15.490234375,33.0,4125773589,71
15.49609375,42.509765625,32.0,4125773589,71
28.5,-14.990234375,32.998046875,4125773589,71
39.0,-22.990234375,33.498046875,4125773589,71
50.5,-34.990234375,34.498046875,4125773589,71
-56.0,-17.490234375,32.498046875,4125773589,71
30.0,8.509765625,32.5,4125773589,71
40.5,0.009765625,33.0,4125773589,71
45.5,11.509765625,33.5,4125773589,71
51.5,46.509765625,34.498046875,4125773589,71
-57.5,-46.490234375,34.998046875,4125773589,71
-48.5,62.009765625,32.498046875,4125773589,71
25.5,60.509765625,32.998046875,4125773589,71
37.5,-17.490234375,33.498046875,4125773589,71
48.0,22.009765625,33.5,4125773589,71
58.5,16.509765625,34.0,4125773589,71
29.49609375,-27.490234375,0.134765625,4125773589,71
2.638671875,0.24609375,0.130859375,4125773589,71
2.5078125,0.69921875,0.1328125,4125773589,71
2.669921875,0.7578125,0.126953125,4125773589,71
2.546875,-0.140625,0.12890625,4125773589,71
1.568359375,-2.19140625,0.130859375,4125773589,71
2.37109375,0.80859375,0.12890625,4125773589,71
2.21875,-1.529296875,0.130859375,4125773589,71
2.572265625,0.73046875,0.1328125,4125773589,71
2.40625,1.091796875,0.134765625,4125773589,71
2.498046875,0.88671875,0.130859375,4125773589,71
-43.990234375,34.0,-0.5,4125773589,71
-23.490234375,34.99609375,-0.5,4125773589,71
-42.990234375,6.49609375,0.0,4125773589,71
0.2421875,2.564453125,-0.099609375,4276144808,74
0.24609375,2.59375,-0.263671875,4276144808,74
0.166015625,2.447265625,-1.029296875,4276144808,74
0.0,2.611328125,-0.68359375,4276144808,74
0.0859375,2.615234375,-0.814453125,4276144808,74
-0.783203125,2.66796875,0.103515625,4276144808,74
12618.1171875,16.509765625,31.0,4276144808,74
6.0,53.509765625,31.5,4276144808,74
16.5,27.009765625,32.0,4276144808,74
28.5,-26.490234375,32.998046875,4276144808,74
37.0,-58.990234375,33.498046875,4276144808,74
44.5,41.009765625,33.998046875,4276144808,74
48.99609375,32.009765625,34.0,4276144808,74
54.49609375,36.009765625,31.5,4276144808,74
12.5,-38.990234375,32.0,4276144808,74
28.0,38.509765625,32.5,4276144808,74
36.0,-50.990234375,33.498046875,4276144808,74
25.0,-48.990234375,33.99609375,4276144808,74
37.49609375,-53.990234375,34.498046875,4276144808,74
55.49609375,0.509765625,37.5,4276144808,74
0.005859375,-14.0,32.0078125,4276144808,74
26.5,-53.990234375,32.998046875,4276144808,74
35.0,51.009765625,33.498046875,4276144808,74
43.5,34.009765625,33.998046875,4276144808,74
41.0,-38.490234375,37.99609375,4276144808,74
0.005859375,-32.5,38.009765625,4276144808,74
0.005859375,12.5,32.01171875,4276144808,74
22.0,31.009765625,49.931640625,4276144808,74
2.642578125,-0.251953125,0.12890625,4276144808,74
2.685546875,-0.23046875,0.130859375,4276144808,74
2.72265625,-0.2578125,0.126953125,4276144808,74
2.642578125,-0.15625,0.12890625,4276144808,74
2.68359375,-0.232421875,0.130859375,4276144808,74
2.716796875,12656.185546875,2.5,4276144808,74
20.509765625,34.998046875,-1.5,4276144808,74
-34.990234375,35.498046875,-1.5,4276144808,74
-26.490234375,35.998046875,-1.5,4276144808,74
-23.990234375,32.498046875,-1.0,4276144808,74
-23.990234375,32.998046875,-1.0,4276144808,74
-34.990234375,33.998046875,-1.0,4276144808,74
-15.990234375,34.498046875,-1.0,4276144808,74
53.509765625,34.5,-1.0,4276144808,74
-18.990234375,35.498046875,-1.0,4276144808,74
-3.990234375,35.998046875,-1.0,4276144808,74
0.005859375,0.123046875,-0.001953125,4276144808,74
0.080078125,0.125,-0.001953125,4276144808,74
0.0546875,0.126953125,-0.001953125,4276144808,74
0.01953125,0.12890625,-0.001953125,4276144808,74
-0.205078125,0.130859375,-0.001953125,4276144808,74
-0.052734375,0.1328125,-0.001953125,4276144808,74
0.251953125,0.134765625,-0.001953125,4276144808,74
-0.009765625,0.13671875,-0.001953125,4276144808,74
0.095703125,0.138671875,-0.001953125,4276144808,74
0.1484375,0.130859375,0.0,4276144808,74
0.291015625,0.1328125,49.0,4276144808,74
34.994140625,0.0,28.0,4276144808,74
33.509765625,0.5,42.5,4276144808,74
34.49609375,0.5,35.5,4276144808,74
33.4921875,1.0,26.0,4276144808,74
37.998046875,1.0,47.0,4276144808,74
33.98828125,1.5,16.0,4276144808,74
37.501953125,1.5,32.5,4276144808,74
38.490234375,1.5,22.5,4276144808,74
6.490234375,0.0,40.0,4276144808,74
0.16015625,2.521484375,0.505859375,80584049,76
0.1640625,2.51171875,0.71875,80584049,76
0.166015625,2.5625,0.685546875,80584049,76
0.083984375,2.630859375,0.603515625,80584049,76
0.0,2.6953125,0.494140625,80584049,76
-0.435546875,2.6484375,0.734375,80584049,76
0.0,2.609375,0.509765625,80584049,76
0.23828125,2.5234375,0.091796875,80584049,76
0.16015625,2.568359375,0.154296875,80584049,76
-0.599609375,2.638671875,-0.44140625,80584049,76
0.158203125,2.515625,0.2890625,80584049,76
0.16015625,2.552734375,0.314453125,80584049,76
0.24609375,2.546875,0.55078125,80584049,76
0.166015625,2.625,0.388671875,80584049,76
0.16796875,2.654296875,0.462890625,80584049,76
0.171875,2.609375,0.8203125,80584049,76
-0.6953125,2.65625,-0.451171875,80584049,76
-1.0,-18.9921875,31.5,80584049,76
8.5,-13.490234375,32.0,80584049,76
0.5,59.009765625,32.501953125,80584049,76
23.5,18.509765625,33.001953125,80584049,76
37.0,3.509765625,33.501953125,80584049,76
50.5,-3.990234375,34.0,80584049,76
58.998046875,-7.490234375,33.5,80584049,76
36.99609375,-4.990234375,34.49609375,80584049,76
24.5,-45.4921875,6.005859375,80584049,76
0.078125,2.46484375,0.380859375,180873049,78
0.080078125,2.525390625,0.220703125,180873049,78
0.16015625,2.556640625,-0.2890625,180873049,78
0.1640625,2.59375,-0.322265625,180873049,78
0.083984375,2.6328125,-0.361328125,180873049,78
0.16796875,2.56640625,-0.8203125,180873049,78
12620.486328125,41.009765625,34.0,180873049,78
58.99609375,40.009765625,32.0,180873049,78
29.0,3.009765625,32.5,180873049,78
35.0,44.009765625,33.498046875,180873049,78
24.0,63.509765625,33.99609375,180873049,78
42.99609375,52.009765625,34.0,180873049,78
45.99609375,-55.490234375,34.5,180873049,78
52.99609375,-27.490234375,33.0,180873049,78
38.99609375,-19.990234375,33.998046875,180873049,78
38.49609375,-31.490234375,34.0,180873049,78
42.49609375,5.009765625,34.501953125,180873049,78
44.49609375,43.509765625,32.501953125,180873049,78
39.0,-12.490234375,33.498046875,180873049,78
50.0,7.009765625,31.0,180873049,78
6.0,-21.990234375,31.998046875,180873049,78
5.5,6.509765625,32.498046875,180873049,78
15.0,-0.490234375,32.5,180873049,78
39.5,32.009765625,33.0,180873049,78
50.5,16.009765625,33.5,180873049,78
61.0,9.009765625,31.0,180873049,78
8.0,8.509765625,31.5,180873049,78
11.0,39.009765625,49.9296875,180873049,78
2.369140625,-1.087890625,0.126953125,180873049,78
2.62890625,0.39453125,0.12890625,180873049,78
2.693359375,0.171875,0.130859375,180873049,78
2.73828125,0.111328125,0.119140625,180873049,78
2.482421875,0.24609375,0.12109375,180873049,78
2.529296875,31.576171875,-0.5,180873049,78
17.009765625,32.498046875,-0.5,180873049,78
-13.490234375,32.99609375,-0.5,180873049,78
-12.490234375,33.49609375,-0.5,180873049,78
50.509765625,33.5,-0.5,180873049,78
33.009765625,33.0,0.0,180873049,78
-17.490234375,32.5,-0.5,180873049,78
-23.9921875,6.00390625,0.0,180873049,78
0.15625,2.4765625,0.25390625,280712169,80
0.080078125,2.517578125,0.294921875,280712169,80
0.080078125,2.560546875,0.2734375,280712169,80
0.08203125,2.59765625,0.30859375,280712169,80
0.083984375,2.630859375,0.376953125,280712169,80
-0.67578125,2.595703125,-0.302734375,280712169,80
12616.900390625,-9.490234375,34.498046875,280712169,80
49.99609375,18.009765625,30.5,280712169,80
-9.0,-37.9921875,31.0,280712169,80
-3.5,-7.4921875,32.5,280712169,80
18.99609375,31.009765625,33.0,280712169,80
29.49609375,5.009765625,33.5,280712169,80
38.99609375,36.509765625,34.0,280712169,80
46.99609375,-62.490234375,34.5,280712169,80
50.99609375,-62.490234375,33.0,280712169,80
28.99609375,28.509765625,33.5,280712169,80
36.99609375,63.009765625,34.0,280712169,80
42.49609375,-27.990234375,31.5,280712169,80
18.0,-42.490234375,32.498046875,280712169,80
28.5,-40.490234375,32.998046875,280712169,80
40.5,-11.490234375,31.498046875,280712169,80
9.0,-3.490234375,31.998046875,280712169,80
19.5,-5.490234375,32.498046875,280712169,80
30.0,-4.490234375,32.998046875,280712169,80
40.5,1.509765625,33.0,280712169,80
49.5,-46.490234375,31.498046875,280712169,80
8.5,26.509765625,31.5,280712169,80
19.0,28.509765625,0.125,280712169,80
2.61328125,0.1171875,0.126953125,280712169,80
2.65234375,0.0625,0.12890625,280712169,80
2.61328125,-0.00390625,0.12890625,280712169,80
2.55078125,0.845703125,0.12890625,280712169,80
2.58984375,-0.029296875,0.12890625,280712169,80
2.646484375,12706.4921875,0.0,280712169,80
0.080078125,2.48046875,0.6953125,431128671,83
0.08203125,2.53125,0.66015625,431128671,83
0.083984375,2.5703125,0.6796875,431128671,83
0.083984375,2.0625,1.740234375,431128671,83
-0.771484375,2.62890625,0.08984375,431128671,83
-0.783203125,2.6640625,0.169921875,431128671,83
126924.20703125,43.009765625,32.5,431128671,83
23.99609375,33.509765625,33.0,431128671,83
29.49609375,18.009765625,33.5,431128671,83
44.99609375,-5.990234375,34.498046875,431128671,83
-57.5,18.009765625,34.5,431128671,83
30.494140625,-0.490234375,35.498046875,431128671,83
47.99609375,38.009765625,32.5,431128671,83
39.5,-10.490234375,33.498046875,431128671,83
50.0,5.009765625,33.5,431128671,83
60.0,25.509765625,34.0,431128671,83
-58.5,55.009765625,32.0,431128671,83
2.61328125,-0.025390625,0.126953125,431128671,83
2.65234375,0.048828125,0.12890625,431128671,83
2.69140625,0.1328125,0.130859375,431128671,83
2.7265625,0.2265625,0.1328125,431128671,83
2.763671875,0.306640625,0.123046875,431128671,83
2.576171875,-0.029296875,0.125,431128671,83
2.61328125,-0.0078125,0.126953125,431128671,83
2.654296875,0.017578125,0.12890625,431128671,83
2.697265625,0.046875,0.130859375,431128671,83
2.736328125,0.109375,0.1328125,431128671,83
2.76171875,32.29296875,2.5,431128671,83
5.509765625,32.5,2.5,431128671,83
2.009765625,33.0,2.5,431128671,83
0.009765625,33.5,2.5,431128671,83
14.009765625,34.0,2.5,431128671,83
-46.490234375,32.0,3.0,431128671,83
8.009765625,0.126953125,0.01171875,431128671,83
-0.037109375,0.12890625,0.01171875,431128671,83
-0.0546875,0.130859375,0.01171875,431128671,83
0.05859375,0.1328125,-0.005859375,431128671,83
0.111328125,0.123046875,-0.00390625,431128671,83
0.34765625,0.125,-0.00390625,431128671,83
0.337890625,0.126953125,-0.00390625,431128671,83
0.330078125,0.12890625,-0.00390625,431128671,83
0.087890625,0.130859375,-0.00390625,431128671,83
0.078125,0.1328125,-0.00390625,431128671,83
-0.236328125,0.134765625,-0.00390625,431128671,83
31.998046875,-0.5,38.998046875,431128671,83
32.0,-0.5,-41.001953125,431128671,83
32.5,-0.5,-53.001953125,431128671,83
33.0,-0.5,35.498046875,431128671,83
33.5,-0.5,58.498046875,431128671,83
34.0,-0.5,-37.501953125,431128671,83
34.998046875,-0.5,51.998046875,431128671,83
33.498046875,0.0,21.0,431128671,83
32.998046875,0.5,15.5,431128671,83
33.49609375,0.5,54.0,431128671,83
33.998046875,0.5,0.251953125,431128671,83
0.1328125,0.001953125,0.115234375,431128671,83
0.0234375,1.0,2.001953125,431128671,83
-0.505859375,2.650390625,-0.111328125,681196950,88
-0.513671875,2.501953125,0.994140625,681196950,88
-0.609375,2.615234375,0.7265625,681196950,88
-0.705078125,2.703125,0.400390625,681196950,88
-0.984375,2.689453125,-0.00390625,681196950,88
0.23828125,2.51953125,0.154296875,681196950,88
-0.58984375,2.6328125,-0.087890625,681196950,88
-0.599609375,2.673828125,0.01953125,681196950,88
-0.609375,2.705078125,0.216796875,681196950,88
0.23828125,2.50390625,0.330078125,681196950,88
0.33203125,2.62890625,0.21875,681196950,88
0.337890625,2.666015625,0.26171875,681196950,88
0.2578125,2.708984375,0.333984375,681196950,88
0.25,2.609375,0.4453125,681196950,88
0.337890625,2.6328125,0.494140625,681196950,88
0.2578125,2.681640625,0.5,681196950,88
0.173828125,2.74609375,0.408203125,681196950,88
0.25,2.578125,0.599609375,681196950,88
0.337890625,2.6015625,0.634765625,681196950,88
0.2578125,2.65625,0.626953125,681196950,88
-0.322265625,0.341796875,2.533203125,681196950,88
-0.408203125,0.517578125,2.533203125,681196950,88
0.0,2.53515625,0.02734375,681196950,88
0.0,2.576171875,-0.001953125,681196950,88
0.0,2.6171875,0.0390625,681196950,88
0.0,2.568359375,0.220703125,681196950,88
0.0,2.6171875,0.087890625,681196950,88
0.0,2.658203125,-0.0703125,681196950,88
0.0,2.697265625,-0.130859375,681196950,88
0.08203125,2.6171875,0.021484375,681196950,88
0.083984375,2.65625,-0.046875,681196950,88
0.083984375,2.697265625,-0.091796875,681196950,88
0.0,2.73046875,-0.236328125,681196950,88
0.08203125,2.6171875,32.515625,681196950,88
40.0,-22.990234375,33.498046875,681196950,88
50.0,-35.990234375,33.998046875,681196950,88
61.0,-30.490234375,32.498046875,681196950,88
28.5,40.509765625,32.5,681196950,88
39.5,35.009765625,33.0,681196950,88
50.5,32.009765625,33.5,681196950,88
61.0,26.009765625,32.5,681196950,88
21.5,32.509765625,33.001953125,681196950,88
37.0,10.509765625,33.501953125,681196950,88
54.0,-26.490234375,32.5,681196950,88
2.64453125,-0.123046875,0.12890625,681196950,88
2.6953125,0.013671875,0.130859375,681196950,88
2.658203125,-0.29296875,0.1328125,681196950,88
2.6875,-0.185546875,0.134765625,681196950,88
2.701171875,-0.212890625,0.126953125,681196950,88
2.623046875,0.3984375,0.12890625,681196950,88
2.6328125,-0.07421875,0.130859375,681196950,88
2.673828125,0.0546875,0.1328125,681196950,88
2.70703125,0.189453125,0.134765625,681196950,88
2.73828125,0.302734375,0.13671875,681196950,88
2.646484375,-0.19921875,0.130859375,681196950,88
1.76953125,-2.078125,0.1328125,681196950,88
2.6640625,0.16796875,0.123046875,681196950,88
2.478515625,-0.28515625,0.125,681196950,88
2.5390625,-0.275390625,0.1328125,681196950,88
2.44921875,1.306640625,0.126953125,681196950,88
2.484375,0.2578125,0.12890625,681196950,88
2.505859375,0.97265625,0.0234375,681196950,88
0.080078125,2.533203125,0.08203125,781357317,90
0.0,2.576171875,-0.06640625,781357317,90
0.08203125,2.6171875,-0.021484375,781357317,90
0.083984375,2.658203125,0.009765625,781357317,90
-0.337890625,2.671875,0.201171875,781357317,90
-0.513671875,2.689453125,0.123046875,781357317,90
127435.064453125,22.509765625,31.0,781357317,90
9.0,23.009765625,31.5,781357317,90
18.5,35.009765625,32.0,781357317,90
28.5,40.509765625,32.5,781357317,90
38.0,58.509765625,33.0,781357317,90
30.498046875,17.509765625,33.501953125,781357317,90
25.49609375,9.509765625,34.001953125,781357317,90
44.49609375,-6.990234375,34.5,781357317,90
52.99609375,-27.490234375,31.5,781357317,90
14.0,-40.490234375,32.0,781357317,90
25.5,-50.990234375,32.5,781357317,90
36.0,-50.490234375,33.0,781357317,90
-24.50390625,31.0078125,33.00390625,781357317,90
34.99609375,1.009765625,33.5,781357317,90
44.99609375,10.009765625,34.0,781357317,90
55.49609375,4.009765625,33.0,781357317,90
53.5,23.505859375,33.5078125,781357317,90
45.0,43.005859375,33.0078125,781357317,90
41.5,31.009765625,33.998046875,781357317,90
51.5,28.509765625,32.998046875,781357317,90
30.0,16.009765625,33.498046875,781357317,90
43.5,47.509765625,49.953125,781357317,90
0.0,2.71875,0.12890625,781357317,90
2.6875,-0.037109375,0.130859375,781357317,90
2.728515625,-0.03125,0.123046875,781357317,90
2.54296875,-0.3828125,0.125,781357317,90
2.583984375,-0.390625,0.126953125,781357317,90
2.619140625,12655.06640625,-2.5,781357317,90
-51.490234375,33.99609375,-2.5,781357317,90
36.509765625,34.0,-2.5,781357317,90
50.509765625,31.0,-2.0,781357317,90
-28.990234375,31.998046875,-2.0,781357317,90
-49.990234375,32.498046875,-2.0,781357317,90
-61.490234375,32.998046875,-2.0,781357317,90
-50.990234375,33.498046875,-2.0,781357317,90
1.509765625,33.5,-2.0,781357317,90
-35.990234375,31.0,-1.5,781357317,90
15.009765625,31.5,-1.5,781357317,90
-0.017578125,0.125,-0.005859375,781357317,90
-0.111328125,0.126953125,-0.005859375,781357317,90
-0.0234375,0.12890625,-0.005859375,781357317,90
0.330078125,0.130859375,-0.005859375,781357317,90
0.771484375,0.12109375,-0.00390625,781357317,90
0.201171875,0.123046875,-0.00390625,781357317,90
0.142578125,0.125,-0.00390625,781357317,90
-0.123046875,0.126953125,-0.00390625,781357317,90
-0.015625,0.12890625,-0.00390625,781357317,90
0.0546875,0.130859375,-0.00390625,781357317,90
-0.025390625,0.1328125,12667.49609375,781357317,90
30.5,-0.5,12.498046875,781357317,90
31.0,-0.5,19.498046875,781357317,90
32.0,-0.5,44.998046875,781357317,90
32.5,-0.5,63.498046875,781357317,90
33.0,-0.5,41.998046875,781357317,90
33.5,-0.5,56.498046875,781357317,90
34.0,-0.5,54.998046875,781357317,90
34.998046875,-0.5,-43.001953125,781357317,90
6.0,0.0,16.0,781357317,90
0.080078125,2.576171875,0.0546875,881363917,92
0.1640625,2.583984375,0.38671875,881363917,92
0.166015625,2.615234375,0.44921875,881363917,92
-0.67578125,2.591796875,0.33984375,881363917,92
-0.685546875,2.640625,0.267578125,881363917,92
-0.6953125,2.67578125,0.310546875,881363917,92
12619.20703125,-34.490234375,31.5,881363917,92
1.0,-25.990234375,32.49609375,881363917,92
19.0,6.009765625,32.998046875,881363917,92
31.998046875,37.509765625,33.0,881363917,92
25.99609375,-56.490234375,33.5,881363917,92
34.99609375,-47.990234375,34.0,881363917,92
36.49609375,-27.990234375,34.5,881363917,92
42.99609375,-53.990234375,35.0,881363917,92
55.99609375,31.009765625,31.5,881363917,92
13.0,42.009765625,32.498046875,881363917,92
25.5,53.009765625,32.998046875,881363917,92
40.5,5.009765625,33.0,881363917,92
16.99609375,1.509765625,33.501953125,881363917,92
25.99609375,9.509765625,34.001953125,881363917,92
20.99609375,47.009765625,34.501953125,881363917,92
43.99609375,-63.990234375,35.0,881363917,92
45.99609375,61.009765625,35.5,881363917,92
55.49609375,-63.490234375,31.0,881363917,92
9.0,22.509765625,31.5,881363917,92
19.998046875,12.009765625,32.0,881363917,92
30.498046875,6.009765625,33.0,881363917,92
51.0,-5.990234375,33.998046875,881363917,92
61.998046875,-3.990234375,34.998046875,881363917,92
42.49609375,-50.990234375,35.0,881363917,92
43.49609375,-41.490234375,31.0,881363917,92
7.0,53.009765625,31.5,881363917,92
18.498046875,45.009765625,32.0,881363917,92
28.998046875,44.009765625,0.126953125,881363917,92
2.650390625,0.12890625,0.12890625,881363917,92
2.693359375,0.16015625,0.123046875,881363917,92
2.55859375,0.30859375,0.125,881363917,92
2.595703125,0.337890625,0.130859375,881363917,92
2.685546875,-0.1953125,0.12890625,881363917,92
2.65234375,-0.017578125,0.130859375,881363917,92
2.69140625,0.041015625,0.1328125,881363917,92
2.712890625,0.109375,0.134765625,881363917,92
2.732421875,0.056640625,0.12109375,881363917,92
2.52734375,0.13671875,0.12890625,881363917,92
53.509765625,33.5,-2.0,881363917,92
-33.990234375,34.0,-2.0,881363917,92
-16.490234375,30.0,-1.5,881363917,92
-62.4921875,30.5,-1.5,881363917,92
60.5078125,31.0,-1.5,881363917,92
63.009765625,31.5,-1.5,881363917,92
63.009765625,30.0,-1.0,881363917,92
-34.4921875,30.5,-1.0,881363917,92
-41.9921875,31.0,-1.0,881363917,92
-38.990234375,31.5,-1.0,881363917,92
-46.990234375,32.0,-1.0,881363917,92
-48.490234375,32.5,-1.0,881363917,92
-35.490234375,33.0,-1.0,881363917,92
29.009765625,34.0,-1.0,881363917,92
24.009765625,30.5,-0.5,881363917,92
-12.9921875,31.0,-0.5,881363917,92
-26.990234375,31.5,-0.5,881363917,92
-59.490234375,32.0,-0.5,881363917,92
-32.990234375,32.5,-0.5,881363917,92
-15.490234375,6.0,0.0,881363917,92
0.15625,2.490234375,0.07421875,981222728,94
0.080078125,2.52734375,0.1875,981222728,94
0.166015625,2.59765625,-0.546875,981222728,94
0.083984375,2.689453125,0.22265625,981222728,94
-0.771484375,2.630859375,-0.015625,981222728,94
-0.783203125,2.666015625,0.1484375,981222728,94
12618.1171875,17.009765625,35.0,981222728,94
