0.0,2.69140625,0.21484375,444869792,85
0.0,2.724609375,0.291015625,444869792,85
-62.0,-36.490234375,32.5,444869792,85
39.0,39.509765625,33.0,444869792,85
51.0,13.009765625,34.5,444869792,85
3.994140625,36.509765625,35.498046875,444869792,85
17.994140625,-46.990234375,32.498046875,444869792,85
28.0,-56.990234375,32.998046875,444869792,85
39.0,-44.990234375,33.498046875,444869792,85
50.5,-25.990234375,33.998046875,444869792,85
61.5,-9.490234375,34.498046875,444869792,85
-56.0,17.509765625,31.0,444869792,85
6.0,53.009765625,31.5,444869792,85
15.5,60.509765625,32.0,444869792,85
30.0,-18.990234375,32.998046875,444869792,85
40.5,-6.990234375,33.498046875,444869792,85
50.5,10.509765625,33.5,444869792,85
60.5,32.009765625,34.0,444869792,85
-58.0,55.509765625,6.0,444869792,85
0.08203125,2.615234375,0.103515625,545073068,87
0.083984375,2.65625,0.083984375,545073068,87
0.083984375,2.693359375,0.150390625,545073068,87
0.0859375,2.724609375,0.287109375,545073068,87
0.0,2.736328125,0.50390625,545073068,87
1.845703125,0.0,3.01171875,545073068,87
39.083984375,41.009765625,33.0,545073068,87
50.0,36.009765625,33.5,545073068,87
61.0,26.509765625,34.0,545073068,87
-59.5,24.509765625,34.5,545073068,87
14.494140625,-38.490234375,35.0,545073068,87
21.494140625,-19.490234375,33.0,545073068,87
51.0,-7.990234375,33.998046875,545073068,87
60.5,-28.490234375,34.498046875,545073068,87
-57.0,-30.990234375,32.498046875,545073068,87
29.0,-41.990234375,32.998046875,545073068,87
39.0,-44.990234375,33.498046875,545073068,87
2.693359375,-0.173828125,0.130859375,545073068,87
2.732421875,-0.2109375,0.123046875,545073068,87
2.57421875,0.103515625,0.125,545073068,87
2.6171875,-0.001953125,0.126953125,545073068,87
2.658203125,-0.052734375,0.12890625,545073068,87
2.6953125,-0.119140625,0.130859375,545073068,87
2.734375,-0.16015625,0.1328125,545073068,87
2.779296875,0.033203125,0.1484375,545073068,87
0.0,2.69140625,0.125,545073068,87
2.6171875,0.046875,0.126953125,545073068,87
2.658203125,-0.060546875,0.12890625,545073068,87
2.697265625,-0.05859375,0.130859375,545073068,87
2.73828125,0.05078125,0.1328125,545073068,87
2.771484375,0.220703125,0.1484375,545073068,87
0.0,2.8125,0.150390625,545073068,87
0.0,2.94921875,0.1484375,545073068,87
2.498046875,12506.15234375,0.5,545073068,87
-53.490234375,38.0,-1.0,545073068,87
-58.9921875,38.490234375,-0.5,545073068,87
-28.4921875,38.990234375,-0.5,545073068,87
-11.4921875,6.490234375,0.0,545073068,87
0.083984375,2.658203125,-0.009765625,644836917,89
0.083984375,2.685546875,0.2578125,644836917,89
0.0859375,2.71484375,0.369140625,644836917,89
0.0,2.76171875,0.328125,644836917,89
-1.146484375,2.55078125,0.384765625,644836917,89
-1.251953125,2.560546875,0.26953125,644836917,89
0.083984375,2.66796875,0.40234375,644836917,89
0.0859375,2.677734375,0.576171875,644836917,89
-0.95703125,2.609375,0.12890625,644836917,89
0.083984375,2.6953125,-0.11328125,644836917,89
0.0859375,2.73828125,0.0625,644836917,89
-1.04296875,2.572265625,-0.1796875,644836917,89
-1.05859375,2.615234375,-0.078125,644836917,89
-1.1640625,2.615234375,-0.060546875,644836917,89
0.16015625,2.56640625,0.16015625,644836917,89
0.166015625,2.650390625,-0.142578125,644836917,89
0.083984375,2.697265625,0.0703125,644836917,89
0.0859375,2.73046875,0.228515625,644836917,89
-0.95703125,2.611328125,-0.015625,644836917,89
-1.05859375,2.61328125,0.1328125,644836917,89
-1.1640625,2.615234375,0.1015625,644836917,89
-1.04296875,2.521484375,0.5390625,644836917,89
0.0,2.734375,0.5078125,644836917,89
-0.857421875,2.458984375,-0.85546875,644836917,89
0.0,2.666015625,0.794921875,644836917,89
0.0,2.759765625,0.345703125,644836917,89
0.15625,2.44140625,0.494140625,794912821,92
0.080078125,2.486328125,0.4921875,794912821,92
0.080078125,2.51953125,0.5390625,794912821,92
0.0,2.572265625,0.677734375,794912821,92
0.083984375,2.625,0.625,794912821,92
0.171875,2.6796875,0.552734375,794912821,92
22.5,-59.490234375,33.501953125,794912821,92
51.0,-6.490234375,34.0,794912821,92
-60.5,-48.490234375,34.5,794912821,92
11.99609375,62.009765625,35.001953125,794912821,92
46.99609375,-11.490234375,35.5,794912821,92
51.49609375,-28.490234375,35.0,794912821,92
30.49609375,30.509765625,35.501953125,794912821,92
35.994140625,9.509765625,30.501953125,794912821,92
-5.5,42.5078125,31.0,794912821,92
6.0,49.509765625,31.5,794912821,92
15.0,-61.990234375,33.0,794912821,92
2.6796875,0.28515625,0.130859375,794912821,92
2.73046875,0.177734375,0.119140625,794912821,92
2.474609375,0.287109375,0.12109375,794912821,92
2.509765625,0.3359375,0.123046875,794912821,92
2.54296875,0.380859375,0.126953125,794912821,92
2.59375,0.58203125,0.12890625,794912821,92
2.65234375,0.470703125,0.130859375,794912821,92
2.716796875,0.349609375,0.130859375,794912821,92
2.541015625,0.0078125,0.1328125,794912821,92
2.505859375,-0.423828125,0.0234375,794912821,92
0.15625,2.486328125,0.140625,895070477,94
0.158203125,2.5234375,0.201171875,895070477,94
0.080078125,2.564453125,0.23828125,895070477,94
0.0,2.609375,0.21484375,895070477,94
0.083984375,2.64453125,0.255859375,895070477,94
0.0,2.673828125,0.380859375,895070477,94
0.0,2.7109375,0.3984375,895070477,94
0.15625,2.466796875,0.3359375,895070477,94
0.158203125,2.505859375,0.357421875,895070477,94
0.16015625,2.544921875,0.373046875,895070477,94
0.0,2.583984375,0.421875,895070477,94
0.15625,2.443359375,0.48046875,895070477,94
0.158203125,2.482421875,0.494140625,895070477,94
0.080078125,2.525390625,0.505859375,895070477,94
0.173828125,2.740234375,0.443359375,895070477,94
0.17578125,2.779296875,0.46484375,895070477,94
0.173828125,2.708984375,0.603515625,895070477,94
0.0,2.62890625,0.404296875,895070477,94
0.16796875,2.677734375,0.30078125,895070477,94
0.1640625,2.544921875,-0.595703125,895070477,94
0.166015625,2.33984375,-1.251953125,895070477,94
0.337890625,1.2578125,-2.365234375,895070477,94
0.080078125,2.572265625,-0.125,895070477,94
0.08203125,2.603515625,-0.259765625,895070477,94
0.166015625,2.62109375,-0.408203125,895070477,94
0.083984375,2.689453125,-0.2265625,895070477,94
0.0,2.740234375,0.001953125,895070477,94
0.080078125,2.576171875,0.056640625,895070477,94
0.08203125,2.6171875,-0.017578125,895070477,94
0.083984375,2.658203125,-0.021484375,895070477,94
0.0,2.6953125,0.158203125,895070477,94
0.0,2.73046875,0.228515625,895070477,94
-1.130859375,2.5390625,-0.125,895070477,94
-2.36328125,0.984375,12734.138671875,895070477,94
10.498046875,31.009765625,6.00390625,895070477,94
0.15625,2.48828125,0.08203125,1045406907,97
0.158203125,2.529296875,0.12109375,1045406907,97
0.16015625,2.568359375,0.154296875,1045406907,97
-0.1640625,2.609375,0.1328125,1045406907,97
0.083984375,2.640625,-0.306640625,1045406907,97
0.083984375,2.69140625,-0.201171875,1045406907,97
12529.47265625,-60.990234375,34.0,1045406907,97
17.494140625,-61.990234375,34.5,1045406907,97
34.49609375,-51.490234375,30.5,1045406907,97
-7.0,-50.4921875,31.0,1045406907,97
-2.5,-11.9921875,31.5,1045406907,97
14.5,-43.490234375,32.0,1045406907,97
29.0,37.509765625,32.5,1045406907,97
39.5,38.009765625,33.0,1045406907,97
47.5,-58.990234375,33.5,1045406907,97
54.0,-27.990234375,31.0,1045406907,97
-7.0,26.5078125,31.998046875,1045406907,97
-12.001953125,-60.9921875,32.001953125,1045406907,97
30.0,6.009765625,32.5,1045406907,97
39.5,0.509765625,33.0,1045406907,97
51.0,2.009765625,33.5,1045406907,97
61.5,-11.990234375,31.498046875,1045406907,97
3.0,-46.490234375,31.5,1045406907,97
-15.5,-43.9921875,32.001953125,1045406907,97
28.5,-24.990234375,32.998046875,1045406907,97
39.5,-6.490234375,33.498046875,1045406907,97
51.0,3.509765625,33.5,1045406907,97
61.5,-0.490234375,49.931640625,1045406907,97
2.6484375,-0.15625,0.12890625,1045406907,97
2.68359375,-0.240234375,0.123046875,1045406907,97
2.548828125,0.349609375,0.125,1045406907,97
2.58984375,0.37890625,0.126953125,1045406907,97
2.625,0.41796875,0.123046875,1045406907,97
2.525390625,32.486328125,-1.5,1045406907,97
-0.990234375,32.5,-1.5,1045406907,97
10.009765625,31.501953125,-1.0,1045406907,97
28.5078125,32.001953125,-1.0,1045406907,97
22.009765625,32.501953125,-1.0,1045406907,97
33.009765625,33.501953125,-1.0,1045406907,97
53.509765625,34.498046875,-1.0,1045406907,97
-46.490234375,34.998046875,-1.0,1045406907,97
-16.490234375,35.498046875,-1.0,1045406907,97
0.009765625,32.0,-0.5,1045406907,97
13.509765625,33.001953125,-0.5,1045406907,97
-0.28125,0.130859375,-0.001953125,1045406907,97
-0.13671875,0.1328125,-0.001953125,1045406907,97
-0.00390625,0.134765625,-0.001953125,1045406907,97
0.1015625,0.13671875,-0.001953125,1045406907,97
0.166015625,0.138671875,-0.001953125,1045406907,97
0.171875,0.130859375,0.0,1045406907,97
-0.501953125,0.123046875,0.00390625,1045406907,97
1138.349609375,2.001953125,3.005859375,1045406907,97
0.158203125,2.5078125,0.33984375,1145141095,99
0.16015625,2.529296875,0.46875,1145141095,99
0.1640625,2.5,0.76171875,1145141095,99
0.083984375,2.6171875,0.462890625,1145141095,99
0.083984375,2.673828125,0.369140625,1145141095,99
0.0859375,2.6796875,0.564453125,1145141095,99
12725.54296875,-63.990234375,34.998046875,1145141095,99
38.99609375,-18.490234375,31.498046875,1145141095,99
1.0,-33.990234375,31.5,1145141095,99
10.5,-26.990234375,32.0,1145141095,99
19.5,-15.990234375,32.5,1145141095,99
25.0,12.009765625,33.001953125,1145141095,99
-0.505859375,-48.9921875,33.998046875,1145141095,99
19.49609375,-2.990234375,34.498046875,1145141095,99
28.99609375,1.509765625,34.5,1145141095,99
38.99609375,6.009765625,35.0,1145141095,99
48.49609375,17.009765625,31.0,1145141095,99
2.484375,0.5,0.123046875,1145141095,99
2.505859375,0.578125,0.125,1145141095,99
2.55078125,0.5859375,0.126953125,1145141095,99
2.583984375,0.625,0.130859375,1145141095,99
2.537109375,0.1484375,0.1328125,1145141095,99
2.60546875,0.1953125,0.134765625,1145141095,99
2.64453125,0.19140625,0.125,1145141095,99
2.49609375,0.787109375,0.125,1145141095,99
2.54296875,-0.599609375,0.126953125,1145141095,99
2.599609375,-0.53125,0.12890625,1145141095,99
2.62890625,12732.98828125,-1.0,1145141095,99
-61.990234375,33.0,-1.0,1145141095,99
-1.490234375,33.998046875,-1.0,1145141095,99
8.009765625,34.0,-1.0,1145141095,99
34.509765625,32.0,-0.5,1145141095,99
-29.4921875,32.9921875,-0.5,1145141095,99
62.009765625,0.12890625,-0.001953125,1145141095,99
0.12890625,0.130859375,-0.001953125,1145141095,99
0.171875,0.1328125,-0.001953125,1145141095,99
0.359375,0.130859375,0.0,1145141095,99
-0.35546875,0.1328125,0.0,1145141095,99
1.205078125,0.12890625,0.001953125,1145141095,99
1.1640625,0.125,-0.001953125,1145141095,99
0.6171875,0.0234375,1.0,1145141095,99
0.078125,2.451171875,0.4609375,1294957897,102
0.080078125,2.544921875,-0.400390625,1294957897,102
0.1640625,2.603515625,-0.23046875,1294957897,102
0.083984375,2.65625,-0.103515625,1294957897,102
0.083984375,2.69921875,-0.0078125,1294957897,102
0.0859375,2.740234375,0.00390625,1294957897,102
9.080078125,-7.490234375,31.998046875,1294957897,102
19.0,-27.990234375,32.498046875,1294957897,102
29.5,-18.490234375,32.998046875,1294957897,102
39.5,8.509765625,33.0,1294957897,102
50.0,36.009765625,33.5,1294957897,102
58.5,-63.990234375,31.0,1294957897,102
7.5,45.509765625,31.5,1294957897,102
19.0,15.509765625,32.0,1294957897,102
29.5,17.509765625,32.5,1294957897,102
39.5,36.009765625,33.0,1294957897,102
47.5,-61.990234375,33.5,1294957897,102
2.716796875,0.3671875,0.123046875,1294957897,102
2.564453125,0.248046875,0.125,1294957897,102
2.611328125,0.197265625,0.126953125,1294957897,102
2.646484375,0.240234375,0.12890625,1294957897,102
2.68359375,0.287109375,0.12890625,1294957897,102
2.615234375,-0.623046875,0.1171875,1294957897,102
2.4375,0.234375,0.119140625,1294957897,102
2.4765625,0.267578125,0.12109375,1294957897,102
2.5078125,0.294921875,0.125,1294957897,102
2.55078125,-0.568359375,0.126953125,1294957897,102
2.595703125,1143.447265625,2.001953125,1294957897,102
0.234375,2.4375,0.4765625,1395330364,104
0.23828125,2.513671875,-0.232421875,1395330364,104
0.16015625,2.572265625,0.017578125,1395330364,104
0.08203125,2.615234375,0.109375,1395330364,104
0.083984375,2.6484375,0.21875,1395330364,104
0.0,2.681640625,0.3125,1395330364,104
-0.0859375,2.6875,0.53125,1395330364,104
0.2421875,2.55078125,-0.271484375,1395330364,104
0.1640625,2.609375,-0.14453125,1395330364,104
0.166015625,2.650390625,0.140625,1395330364,104
0.083984375,2.681640625,0.306640625,1395330364,104
0.16015625,2.556640625,-0.275390625,1395330364,104
0.1640625,2.6015625,-0.236328125,1395330364,104
0.083984375,2.658203125,0.03515625,1395330364,104
0.083984375,2.677734375,0.33203125,1395330364,104
0.080078125,2.560546875,-0.275390625,1395330364,104
0.0,2.6171875,-0.083984375,1395330364,104
0.083984375,2.654296875,0.125,1395330364,104
0.083984375,2.685546875,0.263671875,1395330364,104
-0.1640625,2.595703125,0.30078125,1395330364,104
0.0,2.607421875,0.515625,1395330364,104
0.083984375,2.63671875,0.5703125,1395330364,104
0.0859375,2.681640625,0.560546875,1395330364,104
0.24609375,2.603515625,-0.1328125,1395330364,104
0.33203125,2.609375,-0.3828125,1395330364,104
0.166015625,2.595703125,0.548828125,1395330364,104
0.083984375,2.669921875,0.396484375,1395330364,104
0.0859375,2.732421875,0.185546875,1395330364,104
0.171875,2.72265625,0.2578125,1395330364,104
0.173828125,2.765625,0.232421875,1395330364,104
0.505859375,0.73828125,2.546875,1395330364,104
0.513671875,1.12890625,-2.443359375,1395330364,104
0.521484375,1.330078125,-2.38671875,1395330364,104
0.513671875,1.3515625,12584.171875,1395330364,104
-29.498046875,37.00390625,31.990234375,1395330364,104
17.0,-42.990234375,32.498046875,1395330364,104
29.0,-30.490234375,32.998046875,1395330364,104
40.0,-18.990234375,33.498046875,1395330364,104
51.0,-13.490234375,30.498046875,1395330364,104
-20.0,-62.4921875,30.5,1395330364,104
-6.5,58.5078125,31.0,1395330364,104
-6.0,15.0078125,31.998046875,1395330364,104
18.5,-7.990234375,32.498046875,1395330364,104
29.0,9.009765625,32.5,1395330364,104
40.0,22.509765625,33.0,1395330364,104
49.5,39.009765625,33.5,1395330364,104
55.5,-35.990234375,33.0,1395330364,104
39.49609375,-9.990234375,33.998046875,1395330364,104
43.99609375,-40.490234375,34.0,1395330364,104
49.49609375,-7.490234375,33.5,1395330364,104
29.99609375,35.509765625,34.001953125,1395330364,104
44.99609375,16.509765625,0.5234375,1395330364,104
0.154296875,2.443359375,0.181640625,1495254296,106
0.078125,2.486328125,0.19140625,1495254296,106
0.080078125,2.52734375,0.185546875,1495254296,106
0.080078125,2.57421875,0.08984375,1495254296,106
0.08203125,2.61328125,0.138671875,1495254296,106
0.083984375,2.6484375,0.216796875,1495254296,106
42.16796875,-24.990234375,33.5,1495254296,106
33.0,-61.990234375,30.001953125,1495254296,106
-18.0,-49.4921875,30.5,1495254296,106
-6.0,-52.9921875,31.0,1495254296,106
4.0,-48.490234375,31.5,1495254296,106
14.5,-43.990234375,32.0,1495254296,106
30.0,8.509765625,32.5,1495254296,106
36.5,-55.990234375,33.0,1495254296,106
41.5,-15.490234375,33.5,1495254296,106
45.0,21.009765625,30.001953125,1495254296,106
-19.5,-27.9921875,30.5,1495254296,106
-10.0,-24.9921875,31.0,1495254296,106
0.0,-20.990234375,31.5,1495254296,106
3.0,19.509765625,32.001953125,1495254296,106
28.5,41.509765625,32.5,1495254296,106
31.0,-12.490234375,33.0,1495254296,106
35.5,18.009765625,30.501953125,1495254296,106
-16.5,10.5078125,31.001953125,1495254296,106
-9.0,23.0078125,32.501953125,1495254296,106
27.0,-0.490234375,33.49609375,1495254296,106
37.0,-4.490234375,32.99609375,1495254296,106
37.5,-59.490234375,33.498046875,1495254296,106
47.0,55.009765625,33.998046875,1495254296,106
57.5,53.509765625,32.498046875,1495254296,106
25.0,55.009765625,32.998046875,1495254296,106
38.0,-41.990234375,31.998046875,1495254296,106
16.5,-50.990234375,32.498046875,1495254296,106
26.5,-57.990234375,49.931640625,1495254296,106
2.650390625,-0.197265625,0.12890625,1495254296,106
2.697265625,-0.080078125,0.123046875,1495254296,106
2.5703125,-0.087890625,0.125,1495254296,106
2.611328125,-0.103515625,0.126953125,1495254296,106
2.650390625,-0.142578125,0.12890625,1495254296,106
2.671875,-0.181640625,0.130859375,1495254296,106
2.541015625,0.041015625,0.1328125,1495254296,106
2.609375,-0.119140625,0.130859375,1495254296,106
2.490234375,-0.65234375,0.12890625,1495254296,106
1.11328125,2.109375,0.130859375,1495254296,106
2.51171875,0.970703125,0.0234375,1495254296,106
0.23828125,2.515625,-0.21875,1645010929,109
0.2421875,2.53515625,-0.390625,1645010929,109
0.1640625,2.599609375,0.255859375,1645010929,109
0.166015625,2.6484375,-0.15625,1645010929,109
0.16796875,2.689453125,-0.1640625,1645010929,109
0.0859375,2.740234375,-0.01171875,1645010929,109
-17.193359375,37.0078125,30.5,1645010929,109
-6.0,-0.9921875,31.498046875,1645010929,109
6.5,-46.490234375,31.998046875,1645010929,109
14.0,53.009765625,32.498046875,1645010929,109
18.5,6.509765625,32.998046875,1645010929,109
38.5,34.509765625,33.0,1645010929,109
49.5,11.509765625,33.5,1645010929,109
59.0,56.509765625,31.0,1645010929,109
9.0,-14.990234375,31.998046875,1645010929,109
18.5,-35.990234375,32.498046875,1645010929,109
26.5,60.009765625,32.998046875,1645010929,109
28.0,-3.990234375,33.0,1645010929,109
47.5,58.009765625,33.5,1645010929,109
57.0,-59.990234375,31.0,1645010929,109
9.0,16.009765625,31.5,1645010929,109
19.5,8.009765625,32.0,1645010929,109
30.0,-9.490234375,32.998046875,1645010929,109
0.494140625,-1.0,33.48828125,1645010929,109
41.5,-20.490234375,35.5,1645010929,109
12.494140625,-47.990234375,36.0,1645010929,109
33.994140625,-48.990234375,36.5,1645010929,109
43.994140625,-55.990234375,32.5,1645010929,109
33.0,37.009765625,33.498046875,1645010929,109
41.5,15.509765625,32.498046875,1645010929,109
0.494140625,-22.0,33.5078125,1645010929,109
-25.00390625,-1.9921875,33.994140625,1645010929,109
7.49609375,-31.990234375,32.99609375,1645010929,109
18.0,29.5078125,0.609375,1645010929,109
0.0,2.591796875,-0.369140625,1795110688,112
0.083984375,2.630859375,-0.37109375,1795110688,112
0.083984375,2.673828125,-0.369140625,1795110688,112
0.0859375,2.73828125,-0.0390625,1795110688,112
0.087890625,2.759765625,0.330078125,1795110688,112
-0.8828125,2.64453125,0.447265625,1795110688,112
12612.10546875,21.509765625,31.001953125,1795110688,112
5.0,41.009765625,31.5,1795110688,112
18.0,23.509765625,32.0,1795110688,112
28.5,-50.490234375,32.998046875,1795110688,112
38.0,-54.990234375,33.498046875,1795110688,112
48.0,-47.990234375,33.998046875,1795110688,112
60.0,-6.490234375,34.498046875,1795110688,112
-8.505859375,-30.4921875,30.99609375,1795110688,112
-9.0,-49.9921875,31.0,1795110688,112
2.0,-53.990234375,31.5,1795110688,112
12.5,-53.990234375,32.0,1795110688,112
30.0,12.509765625,32.5,1795110688,112
40.5,-3.490234375,33.498046875,1795110688,112
49.5,10.509765625,33.5,1795110688,112
58.0,21.009765625,31.0,1795110688,112
-3.5,-6.4921875,31.5,1795110688,112
9.0,-15.490234375,33.0,1795110688,112
42.5,-19.990234375,33.5,1795110688,112
51.5,-12.490234375,34.0,1795110688,112
63.0,-16.990234375,33.0,1795110688,112
34.0,23.509765625,33.501953125,1795110688,112
43.5,28.009765625,34.001953125,1795110688,112
54.0,29.509765625,34.501953125,1795110688,112
46.49609375,17.509765625,35.0,1795110688,112
56.49609375,28.509765625,35.5,1795110688,112
-62.00390625,30.509765625,34.5,1795110688,112
43.49609375,-59.990234375,35.0,1795110688,112
52.99609375,-55.490234375,0.138671875,1795110688,112
2.712890625,0.2734375,0.130859375,1795110688,112
1.875,-1.763671875,0.1328125,1795110688,112
2.35546875,-1.05078125,0.1328125,1795110688,112
2.662109375,0.8046875,0.0234375,1795110688,112
0.083984375,2.646484375,-0.234375,1894897768,114
0.083984375,2.69140625,-0.185546875,1894897768,114
0.171875,2.736328125,-0.005859375,1894897768,114
0.173828125,2.65625,0.8046875,1894897768,114
0.17578125,2.763671875,0.541015625,1894897768,114
0.08984375,2.8203125,0.486328125,1894897768,114
0.0,2.609375,-0.216796875,1894897768,114
0.083984375,2.65625,-0.056640625,1894897768,114
0.0,2.69921875,-0.029296875,1894897768,114
0.171875,2.732421875,0.109375,1894897768,114
0.26171875,2.43359375,1.3203125,1894897768,114
0.17578125,2.76953125,0.51171875,1894897768,114
0.08984375,2.8359375,0.3828125,1894897768,114
0.0,2.6171875,0.078125,1894897768,114
0.0,2.65625,0.109375,1894897768,114
0.0,2.6953125,0.146484375,1894897768,114
0.171875,2.669921875,0.59375,1894897768,114
0.34765625,2.166015625,1.7109375,1894897768,114
0.087890625,2.728515625,0.71484375,1894897768,114
0.08984375,2.798828125,0.599609375,1894897768,114
-1.05859375,2.615234375,0.048828125,1894897768,114
-1.04296875,2.568359375,0.224609375,1894897768,114
-0.970703125,2.640625,0.2265625,1894897768,114
-1.07421875,2.646484375,0.216796875,1894897768,114
-0.869140625,2.630859375,-0.25,1894897768,114
-0.8828125,2.65234375,-0.39453125,1894897768,114
-0.984375,2.677734375,-0.255859375,1894897768,114
0.16796875,2.6953125,0.0234375,1894897768,114
-1.130859375,2.458984375,0.642578125,1894897768,114
-0.970703125,1.994140625,1.74609375,1894897768,114
-1.04296875,2.390625,0.96484375,1894897768,114
0.173828125,2.6640625,0.779296875,1894897768,114
0.08203125,2.6171875,-0.01953125,2144956455,119
0.083984375,2.65625,-0.05859375,2144956455,119
0.083984375,2.69140625,-0.181640625,2144956455,119
-1.28515625,1.072265625,-2.169921875,2144956455,119
-1.130859375,2.3359375,-1.001953125,2144956455,119
-1.146484375,2.525390625,-0.51953125,2144956455,119
126625.48828125,57.0078125,33.998046875,2144956455,119
19.49609375,8.509765625,34.0,2144956455,119
20.494140625,5.509765625,34.5,2144956455,119
20.494140625,-21.990234375,35.498046875,2144956455,119
28.994140625,-38.490234375,35.998046875,2144956455,119
49.494140625,4.509765625,33.5,2144956455,119
10.494140625,28.009765625,34.0,2144956455,119
19.494140625,35.009765625,34.5,2144956455,119
20.494140625,9.509765625,35.0,2144956455,119
29.994140625,-23.490234375,33.998046875,2144956455,119
59.5,-36.490234375,32.498046875,2144956455,119
2.59765625,-0.208984375,0.126953125,2144956455,119
2.630859375,-0.341796875,0.12890625,2144956455,119
2.63671875,-0.552734375,0.130859375,2144956455,119
2.7265625,-0.103515625,0.1328125,2144956455,119
2.765625,0.150390625,0.125,2144956455,119
2.609375,-0.138671875,0.126953125,2144956455,119
2.64453125,-0.216796875,0.12890625,2144956455,119
2.67578125,-0.35546875,0.130859375,2144956455,119
0.51171875,2.3671875,0.1328125,2144956455,119
2.666015625,0.75,0.1328125,2144956455,119
2.62109375,-44.583984375,0.5,2144956455,119
-24.990234375,33.998046875,-1.0,2144956455,119
-28.5,34.0078125,-1.0,2144956455,119
19.5,33.509765625,-0.5,2144956455,119
57.0078125,34.4921875,-0.5,2144956455,119
-14.0,6.0078125,0.0,2144956455,119
0.078125,2.451171875,0.45703125,2245001564,121
0.0,2.48046875,0.529296875,2245001564,121
0.0,2.5078125,0.880859375,2245001564,121
0.083984375,2.65234375,0.5,2245001564,121
0.0859375,2.7109375,0.392578125,2245001564,121
0.0,2.775390625,0.181640625,2245001564,121
54.5859375,-30.990234375,34.0,2245001564,121
28.99609375,-25.990234375,34.5,2245001564,121
31.49609375,-25.490234375,35.0,2245001564,121
47.49609375,-15.990234375,34.0,2245001564,121
8.494140625,-1.490234375,34.5,2245001564,121
24.99609375,8.509765625,35.001953125,2245001564,121
29.99609375,32.009765625,30.501953125,2245001564,121
-2.5,32.5078125,31.0,2245001564,121
7.5,40.509765625,32.5,2245001564,121
25.5,14.509765625,33.001953125,2245001564,121
49.5,40.009765625,33.5,2245001564,121
61.0,10.509765625,34.0,2245001564,121
26.99609375,-54.490234375,34.998046875,2245001564,121
37.99609375,-33.990234375,30.998046875,2245001564,121
-6.0,-50.4921875,31.0,2245001564,121
4.0,-45.990234375,31.5,2245001564,121
17.0,62.509765625,32.0,2245001564,121
-31.0,23.5078125,32.50390625,2245001564,121
22.5,29.009765625,33.001953125,2245001564,121
46.5,-51.490234375,33.5,2245001564,121
58.5,59.509765625,34.0,2245001564,121
28.99609375,-9.990234375,34.998046875,2245001564,121
30.494140625,8.009765625,33.5,2245001564,121
13.99609375,45.509765625,34.498046875,2245001564,121
7.994140625,-61.990234375,33.5,2245001564,121
15.49609375,-4.490234375,33.5,2245001564,121
12.49609375,33.509765625,34.498046875,2245001564,121
-60.5,50.509765625,49.935546875,2245001564,121
2.55859375,-0.28125,0.1328125,2245001564,121
2.779296875,1.095703125,2.001953125,2245001564,121
0.154296875,2.41015625,0.44140625,2345175876,123
0.15625,2.451171875,0.4453125,2345175876,123
0.080078125,2.494140625,0.45703125,2345175876,123
0.080078125,2.5625,0.263671875,2345175876,123
0.08203125,2.615234375,0.060546875,2345175876,123
0.083984375,2.658203125,0.0390625,2345175876,123
46.25390625,-56.490234375,33.998046875,2345175876,123
-48.005859375,36.5078125,33.99609375,2345175876,123
9.494140625,-39.990234375,34.498046875,2345175876,123
28.99609375,2.509765625,34.5,2345175876,123
27.994140625,-57.490234375,34.998046875,2345175876,123
20.994140625,2.509765625,35.0,2345175876,123
30.494140625,-3.990234375,33.498046875,2345175876,123
-3.005859375,-52.9921875,33.5,2345175876,123
6.494140625,-52.990234375,34.0,2345175876,123
15.994140625,-51.490234375,33.0,2345175876,123
-10.005859375,-9.4921875,33.5,2345175876,123
2.494140625,0.486328125,0.1328125,2345175876,123
2.5234375,0.52734375,0.125,2345175876,123
2.591796875,-0.361328125,0.126953125,2345175876,123
2.62890625,-0.359375,0.12890625,2345175876,123
2.4765625,0.361328125,0.130859375,2345175876,123
2.486328125,0.5234375,0.1328125,2345175876,123
2.509765625,0.58984375,0.119140625,2345175876,123
2.486328125,0.130859375,0.12109375,2345175876,123
2.52734375,0.14453125,0.123046875,2345175876,123
2.57421875,-0.087890625,0.125,2345175876,123
2.603515625,12654.74609375,-1.0,2345175876,123
56.009765625,33.498046875,-1.0,2345175876,123
53.509765625,33.5,-1.0,2345175876,123
1.509765625,30.001953125,-0.5,2345175876,123
-61.4921875,30.5,-0.5,2345175876,123
-57.9921875,31.0,-0.5,2345175876,123
-53.990234375,0.123046875,-0.001953125,2345175876,123
0.083984375,0.125,-0.001953125,2345175876,123
-0.080078125,0.126953125,-0.001953125,2345175876,123
-0.12890625,0.12890625,-0.001953125,2345175876,123
-0.451171875,0.130859375,-0.001953125,2345175876,123
0.6640625,0.12890625,0.0,2345175876,123
-2.107421875,0.130859375,0.0,2345175876,123
1.123046875,0.130859375,0.001953125,2345175876,123
1.935546875,0.126953125,-0.005859375,2345175876,123
0.275390625,0.1328125,-0.005859375,2345175876,123
-1.666015625,0.12890625,-0.00390625,2345175876,123
-2.341796875,0.12890625,-0.001953125,2345175876,123
2.583984375,0.130859375,-0.001953125,2345175876,123
2.6484375,0.0234375,0.0,2345175876,123
0.15625,2.462890625,0.369140625,2495115403,126
0.23828125,2.51953125,0.1640625,2495115403,126
0.080078125,2.57421875,-0.111328125,2495115403,126
0.08203125,2.611328125,-0.17578125,2495115403,126
0.33203125,2.607421875,-0.40625,2495115403,126
0.16796875,2.6953125,0.021484375,2495115403,126
61.0859375,23.009765625,31.0,2495115403,126
1.5,-46.490234375,31.5,2495115403,126
12.998046875,-54.490234375,32.0,2495115403,126
-15.5,27.0078125,32.99609375,2495115403,126
24.0,-6.490234375,33.49609375,2495115403,126
41.5,-15.490234375,33.5,2495115403,126
37.0,55.509765625,31.501953125,2495115403,126
2.5,-7.990234375,32.49609375,2495115403,126
22.0,33.509765625,32.998046875,2495115403,126
33.5,41.009765625,33.498046875,2495115403,126
42.5,20.009765625,31.998046875,2495115403,126
16.0,-57.490234375,32.498046875,2495115403,126
27.0,-59.490234375,32.998046875,2495115403,126
37.0,-53.990234375,33.498046875,2495115403,126
50.5,-22.990234375,32.498046875,2495115403,126
29.5,-23.490234375,32.998046875,2495115403,126
40.5,-5.490234375,33.498046875,2495115403,126
43.498046875,-22.990234375,30.5,2495115403,126
-7.0,-50.9921875,33.5,2495115403,126
61.0,22.009765625,30.0,2495115403,126
-17.0,56.0078125,30.5,2495115403,126
-6.0,-60.9921875,31.0,2495115403,126
2.5,-43.490234375,33.0,2495115403,126
48.5,54.009765625,33.5,2495115403,126
58.0,-58.490234375,30.0,2495115403,126
-16.5,-61.4921875,30.5,2495115403,126
-8.5,-39.9921875,31.0,2495115403,126
0.5,-30.990234375,0.119140625,2495115403,126
2.453125,0.447265625,0.130859375,2495115403,126
2.5625,0.236328125,0.125,2495115403,126
2.525390625,0.60546875,0.130859375,2495115403,126
2.4609375,0.634765625,0.0234375,2495115403,126
0.080078125,2.5703125,0.158203125,2594894170,128
0.08203125,2.615234375,-0.095703125,2594894170,128
0.083984375,2.65234375,-0.16015625,2594894170,128
0.083984375,2.6875,0.244140625,2594894170,128
0.0859375,2.6796875,0.564453125,2594894170,128
-1.04296875,2.5703125,0.1953125,2594894170,128
0.166015625,2.6484375,0.171875,2594894170,128
-1.01171875,2.453125,0.49609375,2594894170,128
-1.02734375,2.470703125,0.595703125,2594894170,128
-1.130859375,2.46484375,0.62109375,2594894170,128
-1.05859375,2.576171875,0.462890625,2594894170,128
-1.11328125,2.400390625,0.716796875,2594894170,128
-1.130859375,2.423828125,0.767578125,2594894170,128
0.080078125,2.560546875,-0.2734375,2594894170,128
0.1640625,2.576171875,-0.43359375,2594894170,128
0.083984375,2.61328125,-0.482421875,2594894170,128
0.0,2.6875,-0.263671875,2594894170,128
61.0,-17.490234375,31.998046875,2594894170,128
19.0,-28.990234375,32.498046875,2594894170,128
26.0,56.009765625,32.998046875,2594894170,128
36.0,51.509765625,33.498046875,2594894170,128
51.0,2.009765625,33.5,2594894170,128
60.5,30.009765625,34.0,2594894170,128
-56.0,-19.990234375,33.998046875,2594894170,128
10.494140625,21.509765625,34.0,2594894170,128
12.0,30.509765625,33.00390625,2594894170,128
50.5,-9.990234375,6.498046875,2594894170,128
0.150390625,2.36328125,0.466796875,2695524661,130
0.154296875,2.400390625,0.486328125,2695524661,130
0.15625,2.431640625,0.541015625,2695524661,130
0.0,2.53515625,0.0390625,2695524661,130
0.0,2.572265625,0.1484375,2695524661,130
0.0,2.59765625,0.333984375,2695524661,130
27.5,5.009765625,33.001953125,2695524661,130
25.5,57.509765625,33.501953125,2695524661,130
19.49609375,0.509765625,34.0,2695524661,130
27.49609375,46.009765625,34.5,2695524661,130
37.99609375,38.009765625,35.0,2695524661,130
47.49609375,41.009765625,32.0,2695524661,130
18.5,-3.490234375,32.5,2695524661,130
15.0,57.509765625,33.001953125,2695524661,130
-2.005859375,62.0078125,33.5,2695524661,130
4.494140625,-36.990234375,34.0,2695524661,130
22.49609375,-34.490234375,34.5,2695524661,130
2.62890625,0.337890625,0.13671875,2695524661,130
2.634765625,0.3203125,0.138671875,2695524661,130
2.669921875,0.34765625,0.140625,2695524661,130
2.62890625,0.32421875,0.12890625,2695524661,130
2.45703125,0.48046875,0.130859375,2695524661,130
2.478515625,0.55859375,0.1328125,2695524661,130
2.552734375,0.556640625,0.134765625,2695524661,130
2.59765625,0.52734375,0.13671875,2695524661,130
2.6328125,0.55078125,0.138671875,2695524661,130
2.59765625,0.5390625,0.130859375,2695524661,130
2.40234375,0.70703125,0.1328125,2695524661,130
2.458984375,0.7734375,0.134765625,2695524661,130
2.55859375,0.689453125,0.13671875,2695524661,130
2.54296875,0.763671875,0.123046875,2695524661,130
2.51953125,-0.51953125,0.125,2695524661,130
2.568359375,-0.484375,0.126953125,2695524661,130
2.62109375,12655.060546875,-2.0,2695524661,130
38.509765625,30.998046875,-1.5,2695524661,130
2.5078125,31.0,-1.5,2695524661,130
38.009765625,31.998046875,-1.5,2695524661,130
23.509765625,32.498046875,-1.5,2695524661,130
37.509765625,32.998046875,-1.5,2695524661,130
51.009765625,33.498046875,-1.5,2695524661,130
62.509765625,37.998046875,-1.5,2695524661,130
60.5,29.509765625,-1.0,2695524661,130
34.5078125,30.0,-1.0,2695524661,130
35.5078125,30.5,-1.0,2695524661,130
0.134765625,0.12109375,-0.00390625,2695524661,130
-0.158203125,0.123046875,-0.00390625,2695524661,130
-0.2890625,0.125,-0.00390625,2695524661,130
-0.318359375,0.126953125,-0.00390625,2695524661,130
-0.310546875,0.12890625,-0.00390625,2695524661,130
0.005859375,0.115234375,-0.001953125,2695524661,130
0.2890625,0.1171875,-0.001953125,2695524661,130
0.314453125,0.119140625,-0.001953125,2695524661,130
0.30859375,0.125,-0.001953125,2695524661,130
0.345703125,0.126953125,-0.001953125,2695524661,130
0.431640625,0.12890625,127618.998046875,2695524661,130
33.501953125,0.0,23.5,2695524661,130
32.50390625,0.5,9.5,2695524661,130
37.5,-1.5,42.998046875,2695524661,130
6.494140625,0.0,16.0,2695524661,130
-0.083984375,2.53515625,0.796875,2995688667,136
0.0,2.619140625,0.65234375,2995688667,136
-0.94140625,2.560546875,-0.26953125,2995688667,136
-0.95703125,2.6015625,-0.23828125,2995688667,136
-1.146484375,2.572265625,-0.19140625,2995688667,136
-0.083984375,0.734375,-2.5546875,2995688667,136
1151.83203125,1.50390625,33.990234375,2995688667,136
18.49609375,-32.490234375,34.498046875,2995688667,136
20.494140625,1.009765625,34.5,2995688667,136
29.494140625,35.509765625,35.0,2995688667,136
16.994140625,57.509765625,35.5,2995688667,136
26.994140625,50.009765625,32.5,2995688667,136
-48.501953125,-34.5,33.48828125,2995688667,136
12.998046875,-35.498046875,33.98828125,2995688667,136
-21.001953125,-19.998046875,34.48828125,2995688667,136
16.494140625,-52.490234375,34.5,2995688667,136
11.494140625,-17.990234375,35.0,2995688667,136
2.57421875,0.470703125,0.138671875,2995688667,136
2.6640625,0.58203125,0.140625,2995688667,136
2.693359375,0.626953125,0.146484375,2995688667,136
2.75390625,-0.166015625,0.1484375,2995688667,136
2.83984375,-0.0546875,0.126953125,2995688667,136
1.423828125,2.23828125,0.12890625,2995688667,136
1.376953125,2.31640625,0.126953125,2995688667,136
1.494140625,2.193359375,0.12890625,2995688667,136
1.373046875,2.318359375,0.130859375,2995688667,136
1.140625,2.46875,0.126953125,2995688667,136
2.638671875,-0.28125,0.12890625,2995688667,136
2.681640625,-0.265625,0.130859375,2995688667,136
2.732421875,-0.20703125,0.125,2995688667,136
2.61328125,-0.041015625,0.126953125,2995688667,136
2.654296875,-0.146484375,0.12890625,2995688667,136
2.693359375,-0.1796875,0.125,2995688667,136
2.572265625,32.984375,-3.0,2995688667,136
-4.490234375,33.0,-3.0,2995688667,136
15.009765625,33.501953125,-3.0,2995688667,136
31.509765625,30.001953125,-2.5,2995688667,136
-55.9921875,30.5,-2.5,2995688667,136
-60.9921875,31.5,-2.5,2995688667,136
-4.990234375,32.498046875,-2.5,2995688667,136
33.009765625,32.5,-2.5,2995688667,136
16.509765625,33.0,-2.5,2995688667,136
10.009765625,33.5,-2.5,2995688667,136
33.009765625,30.0,-2.0,2995688667,136
0.365234375,0.119140625,-0.0078125,2995688667,136
0.326171875,0.12109375,-0.0078125,2995688667,136
0.3515625,0.123046875,-0.0078125,2995688667,136
0.029296875,0.125,-0.0078125,2995688667,136
0.080078125,0.126953125,-0.0078125,2995688667,136
0.078125,0.12890625,-0.0078125,2995688667,136
0.103515625,0.130859375,-0.0078125,2995688667,136
0.185546875,0.1171875,-0.005859375,2995688667,136
0.45703125,0.119140625,-0.005859375,2995688667,136
0.40625,0.123046875,-0.005859375,2995688667,136
0.109375,0.125,127459.994140625,2995688667,136
32.5,-1.5,-60.501953125,2995688667,136
33.0,-1.5,-42.001953125,2995688667,136
33.5,-1.5,-21.001953125,2995688667,136
32.0,-1.0,16.998046875,2995688667,136
32.5,-1.0,33.498046875,2995688667,136
33.0,-1.0,32.498046875,2995688667,136
34.5,-0.5,18.998046875,2995688667,136
35.0,-0.5,22.998046875,2995688667,136
6.0,0.0,16.0,2995688667,136
-0.970703125,2.599609375,0.51953125,3095575000,138
-1.07421875,2.609375,0.484375,3095575000,138
-1.08984375,2.65234375,0.466796875,3095575000,138
-1.01171875,2.724609375,0.4765625,3095575000,138
0.3984375,0.552734375,-2.015625,3095575000,138
0.40625,0.697265625,-2.01171875,3095575000,138
0.345703125,0.828125,-2.01953125,3095575000,138
0.365234375,1.126953125,-2.009765625,3095575000,138
0.37109375,1.099609375,-2.068359375,3095575000,138
0.376953125,0.91796875,-2.19921875,3095575000,138
0.3828125,0.390625,2.392578125,3095575000,138
0.3125,0.80859375,2.33984375,3095575000,138
0.3984375,0.8515625,-1.908203125,3095575000,138
0.40625,0.927734375,-1.91796875,3095575000,138
0.4140625,0.986328125,-1.93359375,3095575000,138
0.365234375,1.28515625,-1.912109375,3095575000,138
0.37109375,1.39453125,-1.8828125,3095575000,138
49.5,-19.49609375,30.490234375,3095575000,138
-5.5,28.5,30.990234375,3095575000,138
29.0,26.001953125,31.490234375,3095575000,138
53.5,22.001953125,29.990234375,3095575000,138
5.5,-32.494140625,30.005859375,3095575000,138
4.498046875,-51.49609375,30.990234375,3095575000,138
11.998046875,-59.49609375,31.490234375,3095575000,138
36.498046875,-61.99609375,29.490234375,3095575000,138
47.498046875,-35.5,29.5078125,3095575000,138
36.998046875,-44.998046875,30.0078125,3095575000,138
-26.0,-55.498046875,30.5078125,3095575000,138
-1.5,-53.998046875,29.0078125,3095575000,138
-29.001953125,42.0,29.990234375,3095575000,138
-26.001953125,31.5,30.490234375,3095575000,138
-14.001953125,23.0,30.990234375,3095575000,138
9.998046875,17.501953125,31.490234375,3095575000,138
-51.001953125,25.001953125,49.13671875,3095575000,138
0.0,-2.369140625,0.115234375,3095575000,138
0.232421875,2.3984375,0.1171875,3095575000,138
0.31640625,2.4296875,0.119140625,3095575000,138
0.361328125,2.46484375,0.12109375,3095575000,138
0.17578125,2.51953125,0.138671875,3095575000,138
2.630859375,1.228515625,0.140625,3095575000,138
2.55859375,1.45703125,0.11328125,3095575000,138
0.580078125,2.30078125,0.115234375,3095575000,138
0.39453125,2.380859375,0.1171875,3095575000,138
0.349609375,2.423828125,0.119140625,3095575000,138
-8.0,31.0078125,-2.0,3095575000,138
-11.998046875,35.5078125,-2.0,3095575000,138
40.509765625,29.5,-1.5,3095575000,138
-31.5,30.0078125,-1.5,3095575000,138
-25.498046875,30.5078125,-1.5,3095575000,138
-52.998046875,34.5078125,-1.0,3095575000,138
60.009765625,35.0,-1.0,3095575000,138
41.009765625,35.5,-1.0,3095575000,138
33.509765625,36.0,-1.0,3095575000,138
56.509765625,34.5,-0.5,3095575000,138
-28.990234375,35.0,-0.5,3095575000,138
0.31640625,0.138671875,-0.001953125,3095575000,138
0.28125,0.140625,-0.001953125,3095575000,138
0.32421875,0.1015625,0.01171875,3095575000,138
0.1328125,0.103515625,0.01171875,3095575000,138
0.14453125,0.10546875,0.01171875,3095575000,138
0.140625,0.111328125,0.01171875,3095575000,138
0.408203125,0.11328125,0.01171875,3095575000,138
0.380859375,0.115234375,0.01171875,3095575000,138
0.244140625,0.0234375,0.0,3095575000,138
0.4609375,1.166015625,1.34765625,3195681555,140
0.470703125,0.99609375,1.525390625,3195681555,140
0.48046875,1.009765625,1.564453125,3195681555,140
-1.05859375,2.583984375,0.416015625,3195681555,140
-1.1640625,2.5859375,0.396484375,3195681555,140
-1.361328125,2.53125,0.412109375,3195681555,140
12676.7109375,-3.490234375,36.5,3195681555,140
30.494140625,25.009765625,21.501953125,3195681555,140
10.0,29.501953125,22.005859375,3195681555,140
-20.0,52.5,22.505859375,3195681555,140
0.0,-51.0,23.005859375,3195681555,140
62.0,42.001953125,23.505859375,3195681555,140
-43.0,46.501953125,24.005859375,3195681555,140
-47.5,63.501953125,34.505859375,3195681555,140
18.994140625,-5.490234375,35.0,3195681555,140
23.494140625,20.509765625,21.501953125,3195681555,140
0.0,-62.0,22.4921875,3195681555,140
0.0,61.5,22.9921875,3195681555,140
32.0,-50.498046875,23.4921875,3195681555,140
21.5,58.001953125,23.505859375,3195681555,140
40.0,-61.998046875,24.005859375,3195681555,140
-16.0,-31.0,34.505859375,3195681555,140
11.494140625,30.009765625,35.001953125,3195681555,140
5.494140625,52.009765625,21.501953125,3195681555,140
6.5,-37.498046875,22.4921875,3195681555,140
33.0,-38.998046875,22.9921875,3195681555,140
49.5,-43.498046875,23.4921875,3195681555,140
36.501953125,48.001953125,23.505859375,3195681555,140
38.5,62.501953125,24.005859375,3195681555,140
-30.0,-31.5,22.005859375,3195681555,140
33.0,-31.998046875,22.9921875,3195681555,140
31.0,-43.498046875,23.4921875,3195681555,140
44.5,-49.498046875,23.9921875,3195681555,140
0.001953125,38.0,49.3125,3195681555,140
0.37890625,1.86328125,0.0859375,3195681555,140
0.740234375,-1.578125,0.087890625,3195681555,140
0.732421875,-1.625,0.08984375,3195681555,140
0.779296875,-1.646484375,0.091796875,3195681555,140
0.900390625,-1.646484375,0.09375,3195681555,140
1.158203125,-1.525390625,0.0859375,3195681555,140
0.923828125,-1.478515625,0.087890625,3195681555,140
1.08203125,-1.43359375,0.08984375,3195681555,140
1.26171875,-1.333984375,0.091796875,3195681555,140
1.51953125,-1.138671875,0.09375,3195681555,140
1.64453125,-1.029296875,0.087890625,3195681555,140
0.484375,-1.6796875,0.08984375,3195681555,140
0.0,-1.8046875,0.091796875,3195681555,140
0.0859375,-1.82421875,0.09375,3195681555,140
0.0,-1.873046875,0.095703125,3195681555,140
0.0,-1.974609375,0.087890625,3195681555,140
0.697265625,-1.703125,0.08984375,3195681555,140
0.97265625,-1.609375,0.091796875,3195681555,140
0.98046875,-1.650390625,0.09375,3195681555,140
1.02734375,-1.671875,0.095703125,3195681555,140
1.013671875,-1.728515625,0.080078125,3195681555,140
0.625,-1.541015625,0.08203125,3195681555,140
0.50390625,-1.62109375,0.083984375,3195681555,140
0.38671875,-1.693359375,0.0859375,3195681555,140
1.13671875,-1.376953125,0.087890625,3195681555,140
1.18359375,-1.3984375,0.08984375,3195681555,140
1.298828125,-1.361328125,0.091796875,3195681555,140
1.462890625,-1.24609375,0.09375,3195681555,140
1.580078125,-1.1640625,0.080078125,3195681555,140
0.76953125,-1.466796875,0.0234375,3195681555,140
0.37890625,0.0,-1.07421875,3295679731,142
0.4296875,0.435546875,-0.96875,3295679731,142
0.37109375,0.7890625,-0.8046875,3295679731,142
0.3828125,0.701171875,-0.931640625,3295679731,142
0.435546875,0.755859375,-0.919921875,3295679731,142
0.490234375,0.771484375,-0.9375,3295679731,142
451.005859375,11.501953125,17.49609375,3295679731,142
-52.0,-8.998046875,34.494140625,3295679731,142
18.994140625,43.009765625,34.5,3295679731,142
27.494140625,62.009765625,35.0,3295679731,142
41.99609375,-30.990234375,15.0,3295679731,142
-45.0,37.001953125,15.99609375,3295679731,142
-51.0,30.501953125,16.49609375,3295679731,142
-64.0,11.501953125,16.99609375,3295679731,142
17.501953125,-24.498046875,17.494140625,3295679731,142
0.001953125,49.5,17.994140625,3295679731,142
24.501953125,-29.498046875,18.494140625,3295679731,142
0.62109375,-1.142578125,0.134765625,3295679731,142
2.63671875,0.26171875,0.13671875,3295679731,142
2.6640625,0.36328125,0.142578125,3295679731,142
0.712890625,2.712890625,0.05078125,3295679731,142
0.27734375,-0.857421875,0.052734375,3295679731,142
0.291015625,-0.865234375,0.0546875,3295679731,142
0.27734375,-0.90625,0.056640625,3295679731,142
0.0,-1.037109375,0.05859375,3295679731,142
0.38671875,-0.990234375,0.060546875,3295679731,142
0.6328125,-0.94921875,0.0625,3295679731,142
0.595703125,-1.015625,0.064453125,3295679731,142
0.345703125,-1.18359375,0.06640625,3295679731,142
1.267578125,-0.369140625,0.068359375,3295679731,142
0.970703125,-0.876953125,0.134765625,3295679731,142
2.5859375,0.40234375,0.13671875,3295679731,142
2.6015625,0.5234375,0.138671875,3295679731,142
2.625,-41.404296875,1.0,3295679731,142
-57.5,37.009765625,1.0,3295679731,142
43.501953125,13.009765625,1.5,3295679731,142
57.0,13.99609375,1.5,3295679731,142
48.5,14.49609375,1.5,3295679731,142
30.5,14.99609375,1.5,3295679731,142
22.0,15.49609375,1.5,3295679731,142
-33.998046875,15.99609375,1.5,3295679731,142
50.001953125,16.49609375,1.5,3295679731,142
24.501953125,16.99609375,1.5,3295679731,142
-12.498046875,36.994140625,1.5,3295679731,142
2.537109375,0.05078125,0.0078125,3295679731,142
-0.74609375,0.052734375,0.0078125,3295679731,142
-0.802734375,0.0546875,0.0078125,3295679731,142
-0.904296875,0.056640625,0.0078125,3295679731,142
1.021484375,0.05859375,0.0078125,3295679731,142
0.486328125,0.060546875,0.0078125,3295679731,142
-0.6875,0.0625,0.0078125,3295679731,142
-0.8671875,0.08203125,0.0078125,3295679731,142
-1.2109375,0.083984375,0.0078125,3295679731,142
-1.287109375,0.0859375,0.0078125,3295679731,142
-1.388671875,0.142578125,28.0078125,3295679731,142
13.0078125,2.5,9.5,3295679731,142
13.99609375,2.5,17.5,3295679731,142
14.49609375,2.5,19.0,3295679731,142
14.99609375,2.5,15.0,3295679731,142
15.001953125,2.5,13.5,3295679731,142
21.001953125,2.5,42.5,3295679731,142
21.994140625,2.5,60.0,3295679731,142
22.494140625,2.5,37.0,3295679731,142
6.494140625,0.0,16.0,3295679731,142
0.337890625,0.0,0.4296875,3395677939,144
0.365234375,0.0,0.517578125,3395677939,144
0.375,0.0,-0.552734375,3395677939,144
0.3828125,0.0,-0.564453125,3395677939,144
0.265625,0.48828125,0.345703125,3395677939,144
0.5,0.0,-0.630859375,3395677939,144
0.482421875,-22.0,9.99609375,3395677939,144
0.001953125,-27.5,35.49609375,3395677939,144
29.994140625,-21.990234375,47.998046875,3395677939,144
25.00390625,-43.986328125,48.498046875,3395677939,144
22.005859375,-31.986328125,48.998046875,3395677939,144
44.50390625,-41.986328125,6.498046875,3395677939,144
0.0,-9.5,6.5,3395677939,144
0.0,5.0,7.001953125,3395677939,144
0.0,-16.0,7.99609375,3395677939,144
0.0,-9.5,8.49609375,3395677939,144
-50.0,9.5,34.998046875,3395677939,144
18.994140625,51.009765625,35.0,3395677939,144
26.494140625,-56.490234375,47.5,3395677939,144
26.00390625,17.013671875,48.0,3395677939,144
35.50390625,25.513671875,48.5,3395677939,144
45.00390625,31.513671875,56.0,3395677939,144
61.005859375,-54.484375,6.5,3395677939,144
0.0,-3.5,7.49609375,3395677939,144
0.0,-3.5,7.99609375,3395677939,144
0.0,-1.0,8.49609375,3395677939,144
0.0,-23.0,8.99609375,3395677939,144
0.0,-42.0,49.64453125,3395677939,144
0.0,-0.724609375,0.134765625,3395677939,144
2.59765625,0.3125,0.13671875,3395677939,144
2.6328125,0.3359375,0.1875,3395677939,144
3.669921875,0.353515625,0.02734375,3395677939,144
0.056640625,-0.427734375,0.029296875,3395677939,144
0.0,12630.009765625,1.5,3395677939,144
-17.0,8.99609375,1.5,3395677939,144
-35.5,9.49609375,1.5,3395677939,144
-59.5,34.99609375,1.5,3395677939,144
-61.490234375,35.0,1.5,3395677939,144
-25.990234375,7.0,2.0,3395677939,144
28.0,7.998046875,2.0,3395677939,144
5.5,8.498046875,2.0,3395677939,144
-14.0,8.99609375,2.0,3395677939,144
-32.0,9.49609375,2.0,3395677939,144
-59.0,7.49609375,2.5,3395677939,144
-0.37109375,0.029296875,0.009765625,3395677939,144
-0.453125,0.03125,0.009765625,3395677939,144
-0.5,0.033203125,0.009765625,3395677939,144
-0.517578125,0.03515625,0.009765625,3395677939,144
0.66015625,0.037109375,0.009765625,3395677939,144
-0.724609375,0.130859375,0.009765625,3395677939,144
0.474609375,0.02734375,0.01171875,3395677939,144
-0.30859375,0.029296875,0.01171875,3395677939,144
-0.34765625,0.03125,0.01171875,3395677939,144
-0.28125,0.033203125,0.01171875,3395677939,144
0.01953125,0.03515625,53.01171875,3395677939,144
9.99609375,3.0,59.5,3395677939,144
10.49609375,3.0,47.5,3395677939,144
10.501953125,3.0,33.5,3395677939,144
7.001953125,3.5,6.5,3395677939,144
7.998046875,3.5,15.5,3395677939,144
8.498046875,3.5,32.0,3395677939,144
8.99609375,3.5,63.5,3395677939,144
9.001953125,3.5,-37.0,3395677939,144
6.49609375,0.0,40.0,3395677939,144
-1.04296875,2.57421875,-0.150390625,3494959581,146
-1.05859375,2.615234375,-0.0859375,3494959581,146
-1.1640625,2.615234375,0.041015625,3494959581,146
-1.271484375,2.611328125,-0.0625,3494959581,146
-1.380859375,2.6015625,-0.060546875,3494959581,146
-1.306640625,2.681640625,0.125,3494959581,146
12529.44140625,44.509765625,35.001953125,3494959581,146
21.994140625,-22.490234375,35.5,3494959581,146
25.494140625,-59.990234375,36.0,3494959581,146
