55.505859375,33.005859375,-2.0,3410158972,17
-12.4921875,33.501953125,-2.0,3410158972,17
-50.490234375,34.0,-2.0,3410158972,17
-39.990234375,34.998046875,-2.0,3410158972,17
-52.490234375,31.998046875,-1.5,3410158972,17
7.00390625,32.0078125,-1.5,3410158972,17
2.505859375,32.5078125,-1.5,3410158972,17
-19.494140625,33.005859375,-1.5,3410158972,17
-17.9921875,33.50390625,-1.5,3410158972,17
34.509765625,34.0,-1.5,3410158972,17
-40.990234375,31.998046875,-1.0,3410158972,17
-1.275390625,0.125,-0.00390625,3410158972,17
-0.68359375,0.126953125,-0.00390625,3410158972,17
-0.623046875,0.12890625,-0.00390625,3410158972,17
-0.7734375,0.130859375,-0.00390625,3410158972,17
-0.77734375,0.1328125,-0.00390625,3410158972,17
-1.146484375,0.123046875,-0.001953125,3410158972,17
-0.490234375,0.125,-0.001953125,3410158972,17
-0.4375,0.126953125,-0.001953125,3410158972,17
-0.388671875,0.0234375,0.0,3410158972,17
-0.158203125,2.52734375,0.146484375,3510021549,19
-0.080078125,2.576171875,-0.046875,3510021549,19
-0.1640625,2.599609375,-0.263671875,3510021549,19
-0.25,2.626953125,0.3203125,3510021549,19
-0.25390625,2.666015625,0.3359375,3510021549,19
-0.2578125,2.7265625,0.099609375,3510021549,19
-20.369140625,-62.490234375,34.998046875,3510021549,19
9.00390625,6.009765625,35.498046875,3510021549,19
22.50390625,-23.990234375,31.99609375,3510021549,19
-35.5,-7.4921875,32.494140625,3510021549,19
-18.0,7.5078125,32.99609375,3510021549,19
40.5,11.009765625,33.0,3510021549,19
51.0,4.509765625,33.5,3510021549,19
61.0,-27.990234375,34.498046875,3510021549,19
20.00390625,5.509765625,34.5,3510021549,19
27.00390625,-61.990234375,35.498046875,3510021549,19
33.50390625,37.009765625,32.498046875,3510021549,19
2.6171875,0.05078125,0.126953125,3510021549,19
2.650390625,0.220703125,0.12890625,3510021549,19
2.69921875,0.015625,0.130859375,3510021549,19
2.73828125,-0.041015625,0.1328125,3510021549,19
2.748046875,-0.431640625,0.134765625,3510021549,19
2.615234375,-0.076171875,0.13671875,3510021549,19
2.685546875,-0.138671875,0.125,3510021549,19
2.572265625,0.482421875,0.126953125,3510021549,19
2.65625,0.126953125,0.12890625,3510021549,19
2.697265625,-0.107421875,0.130859375,3510021549,19
2.724609375,12656.208984375,1.5,3510021549,19
17.509765625,34.5,1.5,3510021549,19
-37.4921875,33.00390625,2.0,3510021549,19
42.009765625,33.998046875,2.0,3510021549,19
13.509765625,34.498046875,2.0,3510021549,19
-22.990234375,32.99609375,3.5,3510021549,19
11.009765625,49.93359375,0.013671875,3510021549,19
-0.453125,0.130859375,0.013671875,3510021549,19
-0.478515625,0.126953125,-0.015625,3510021549,19
2.3203125,0.12890625,-0.015625,3510021549,19
2.208984375,0.125,-0.009765625,3510021549,19
1.861328125,0.12109375,-0.005859375,3510021549,19
2.017578125,0.123046875,-0.005859375,3510021549,19
2.5703125,0.125,-0.005859375,3510021549,19
-1.806640625,0.126953125,-0.005859375,3510021549,19
-0.857421875,0.12109375,-0.00390625,3510021549,19
-1.244140625,0.123046875,-0.00390625,3510021549,19
32.49609375,-1.0,-9.001953125,3510021549,19
32.99609375,-1.0,-14.001953125,3510021549,19
33.49609375,-1.0,-24.001953125,3510021549,19
33.998046875,-1.0,-52.001953125,3510021549,19
34.498046875,-1.0,34.998046875,3510021549,19
31.498046875,-0.5,35.498046875,3510021549,19
31.998046875,-0.5,10.498046875,3510021549,19
32.498046875,-0.5,-44.501953125,3510021549,19
32.998046875,-0.5,62.998046875,3510021549,19
33.498046875,-0.5,43.998046875,3510021549,19
33.998046875,-0.5,498.544921875,3510021549,19
0.1328125,-0.001953125,0.23046875,3510021549,19
0.123046875,0.001953125,0.0390625,3510021549,19
0.125,0.001953125,0.0546875,3510021549,19
0.1328125,0.00390625,0.24609375,3510021549,19
0.134765625,0.00390625,0.271484375,3510021549,19
0.130859375,0.005859375,0.19921875,3510021549,19
0.1328125,0.005859375,0.224609375,3510021549,19
0.134765625,0.005859375,0.1015625,3510021549,19
0.0234375,0.0,33.15625,3510021549,19
-0.080078125,2.53125,-0.48046875,3610065242,21
-0.08203125,2.572265625,-0.4765625,3610065242,21
-0.083984375,2.634765625,-0.345703125,3610065242,21
-0.16796875,2.69140625,-0.12890625,3610065242,21
-0.2578125,2.72265625,-0.16796875,3610065242,21
1.04296875,2.568359375,-0.234375,3610065242,21
-18.265625,18.509765625,31.5,3610065242,21
12.498046875,29.009765625,32.498046875,3610065242,21
22.998046875,36.009765625,32.998046875,3610065242,21
34.498046875,35.509765625,33.498046875,3610065242,21
45.498046875,40.509765625,33.998046875,3610065242,21
54.998046875,46.009765625,34.0,3610065242,21
-62.001953125,39.509765625,31.5,3610065242,21
15.998046875,54.509765625,32.498046875,3610065242,21
26.998046875,62.509765625,32.998046875,3610065242,21
35.998046875,45.509765625,33.498046875,3610065242,21
43.0,24.009765625,33.998046875,3610065242,21
2.677734375,0.46875,0.1328125,3610065242,21
2.7265625,0.484375,0.125,3610065242,21
2.607421875,-0.17578125,0.126953125,3610065242,21
2.60546875,-0.5,0.130859375,3610065242,21
2.6328125,0.712890625,0.1328125,3610065242,21
2.55078125,0.376953125,0.134765625,3610065242,21
2.591796875,0.36328125,0.1328125,3610065242,21
2.54296875,0.423828125,0.134765625,3610065242,21
2.583984375,0.41015625,0.134765625,3610065242,21
2.5703125,0.486328125,0.12109375,3610065242,21
1.50390625,182.44140625,3.5,3610065242,21
23.50390625,32.5078125,3.5,3610065242,21
5.505859375,35.0078125,-4.0,3610065242,21
2.009765625,35.498046875,-3.5,3610065242,21
-10.990234375,32.998046875,-2.5,3610065242,21
-9.490234375,33.49609375,-2.5,3610065242,21
-51.490234375,49.736328125,-0.0078125,3610065242,21
-0.349609375,0.12890625,-0.0078125,3610065242,21
-0.12109375,0.130859375,-0.0078125,3610065242,21
-0.1640625,0.1328125,-0.0078125,3610065242,21
-0.76171875,0.134765625,-0.0078125,3610065242,21
-0.74609375,0.13671875,-0.0078125,3610065242,21
-0.87890625,0.126953125,-0.005859375,3610065242,21
-0.1875,0.12890625,-0.005859375,3610065242,21
-0.095703125,0.130859375,-0.005859375,3610065242,21
0.16796875,0.1328125,-0.005859375,3610065242,21
-0.625,0.134765625,-0.005859375,3610065242,21
-0.57421875,0.13671875,-0.005859375,3610065242,21
-0.640625,0.125,-0.00390625,3610065242,21
-0.484375,0.126953125,-0.00390625,3610065242,21
-0.0390625,0.12890625,-0.00390625,3610065242,21
0.115234375,0.130859375,-0.00390625,3610065242,21
0.30859375,0.1328125,-0.00390625,3610065242,21
-0.37109375,0.134765625,-0.00390625,3610065242,21
-0.369140625,0.13671875,-0.00390625,3610065242,21
-0.4140625,0.125,-0.001953125,3610065242,21
-0.099609375,0.126953125,-0.001953125,3610065242,21
-0.0234375,0.12890625,-0.001953125,3610065242,21
0.04296875,0.130859375,-0.001953125,3610065242,21
0.0390625,0.1328125,-0.001953125,3610065242,21
-0.169921875,0.134765625,-0.001953125,3610065242,21
-0.111328125,0.13671875,-0.001953125,3610065242,21
-0.1015625,0.1328125,0.0,3610065242,21
-0.625,0.134765625,0.0,3610065242,21
-1.646484375,0.1328125,0.001953125,3610065242,21
2.26171875,0.12890625,0.00390625,3610065242,21
0.873046875,0.0234375,0.0,3610065242,21
1.126953125,2.310546875,0.177734375,3710155211,23
-0.08203125,2.55859375,-0.55078125,3710155211,23
-0.083984375,2.568359375,-0.681640625,3710155211,23
0.083984375,2.267578125,-1.4609375,3710155211,23
0.0,2.6484375,0.703125,3710155211,23
-0.34765625,2.7578125,-0.10546875,3710155211,23
-12.94140625,11.509765625,31.001953125,3710155211,23
-63.49609375,-37.4921875,31.5,3710155211,23
-53.99609375,-34.4921875,32.0,3710155211,23
23.998046875,36.009765625,32.998046875,3710155211,23
28.498046875,4.509765625,33.498046875,3710155211,23
51.0,2.009765625,33.5,3710155211,23
54.498046875,-33.490234375,34.0,3710155211,23
63.498046875,-16.490234375,31.998046875,3710155211,23
-58.99609375,-7.9921875,32.0,3710155211,23
24.998046875,50.509765625,32.998046875,3710155211,23
40.498046875,-28.490234375,33.498046875,3710155211,23
48.5,60.509765625,33.5,3710155211,23
56.498046875,1.509765625,34.0,3710155211,23
63.498046875,-21.490234375,34.998046875,3710155211,23
-19.99609375,-28.9921875,32.501953125,3710155211,23
32.998046875,30.509765625,33.498046875,3710155211,23
36.498046875,13.009765625,33.998046875,3710155211,23
54.498046875,50.009765625,34.498046875,3710155211,23
63.998046875,63.509765625,31.498046875,3710155211,23
-26.001953125,59.0078125,32.99609375,3710155211,23
30.498046875,42.009765625,33.498046875,3710155211,23
38.998046875,27.509765625,49.935546875,3710155211,23
2.693359375,-0.369140625,0.119140625,3710155211,23
2.412109375,-0.5546875,0.12109375,3710155211,23
2.4453125,-0.59375,0.123046875,3710155211,23
2.47265625,-0.65234375,0.126953125,3710155211,23
2.62109375,-0.1640625,0.12890625,3710155211,23
2.67578125,12655.87890625,2.5,3710155211,23
-46.990234375,34.498046875,2.5,3710155211,23
57.509765625,31.498046875,3.0,3710155211,23
22.0078125,32.998046875,-4.0,3710155211,23
-42.9921875,33.498046875,-4.0,3710155211,23
-52.9921875,33.998046875,-4.0,3710155211,23
63.509765625,32.998046875,-3.5,3710155211,23
-7.4921875,33.498046875,-3.5,3710155211,23
-9.490234375,33.998046875,-3.5,3710155211,23
-17.990234375,34.498046875,-3.5,3710155211,23
-43.490234375,34.998046875,-3.5,3710155211,23
-0.26171875,0.126953125,-0.01171875,3710155211,23
0.052734375,0.12890625,-0.01171875,3710155211,23
0.00390625,0.130859375,-0.01171875,3710155211,23
-0.033203125,0.1328125,-0.01171875,3710155211,23
-0.072265625,0.134765625,-0.01171875,3710155211,23
-0.056640625,0.126953125,-0.009765625,3710155211,23
-0.275390625,0.12890625,-0.009765625,3710155211,23
-0.359375,0.130859375,-0.009765625,3710155211,23
-0.42578125,0.1328125,-0.009765625,3710155211,23
-0.22265625,0.134765625,-0.009765625,3710155211,23
-0.072265625,0.126953125,127446.4921875,3710155211,23
33.498046875,-2.0,43.998046875,3710155211,23
33.998046875,-2.0,28.498046875,3710155211,23
34.498046875,-2.0,-20.501953125,3710155211,23
34.998046875,-2.0,62.998046875,3710155211,23
40.498046875,-2.0,44.498046875,3710155211,23
40.51171875,-2.0,59.998046875,3710155211,23
41.009765625,-2.0,37.498046875,3710155211,23
32.986328125,-1.5,50.498046875,3710155211,23
6.498046875,0.0,-32.0,3710155211,23
0.080078125,2.51171875,-0.57421875,3809582284,25
0.08203125,2.55078125,-0.587890625,3809582284,25
0.083984375,2.587890625,-0.60546875,3809582284,25
0.083984375,2.51953125,-0.96484375,3809582284,25
0.0,2.44140625,-1.24609375,3809582284,25
-0.087890625,2.54296875,-1.123046875,3809582284,25
-15.853515625,24.509765625,31.998046875,3809582284,25
9.5,13.509765625,32.498046875,3809582284,25
21.5,19.509765625,32.998046875,3809582284,25
31.5,17.509765625,33.498046875,3809582284,25
10.0,21.009765625,33.99609375,3809582284,25
-6.49609375,29.0078125,34.498046875,3809582284,25
6.50390625,56.009765625,34.998046875,3809582284,25
18.50390625,-48.490234375,31.998046875,3809582284,25
15.5,52.509765625,32.498046875,3809582284,25
26.5,55.509765625,32.998046875,3809582284,25
37.0,56.009765625,33.498046875,3809582284,25
1.828125,-1.986328125,0.130859375,3809582284,25
2.494140625,-0.216796875,0.1328125,3809582284,25
2.537109375,-0.150390625,0.134765625,3809582284,25
2.57421875,-0.154296875,0.125,3809582284,25
2.578125,-0.44921875,0.126953125,3809582284,25
1.8828125,1.876953125,0.12890625,3809582284,25
1.85546875,1.9609375,0.130859375,3809582284,25
2.5390625,-0.076171875,0.1328125,3809582284,25
2.578125,-0.0390625,0.126953125,3809582284,25
2.451171875,-0.259765625,0.12890625,3809582284,25
2.4921875,-0.2265625,0.130859375,3809582284,25
2.541015625,0.00390625,0.125,3809582284,25
2.58984375,-0.3828125,0.126953125,3809582284,25
2.580078125,-0.638671875,0.12890625,3809582284,25
2.34765625,-1.33203125,0.130859375,3809582284,25
2.361328125,-0.8359375,0.1328125,3809582284,25
2.5,12683.28125,0.0,3809582284,25
-52.4921875,33.99609375,0.0,3809582284,25
-18.9921875,34.49609375,0.0,3809582284,25
4.5078125,34.998046875,0.0,3809582284,25
-10.490234375,32.994140625,0.5,3809582284,25
0.0078125,33.498046875,0.5,3809582284,25
10.5078125,33.998046875,0.5,3809582284,25
-16.4921875,34.4921875,0.5,3809582284,25
51.5078125,34.994140625,0.5,3809582284,25
-28.990234375,32.994140625,1.0,3809582284,25
34.0078125,33.498046875,1.0,3809582284,25
53.0078125,33.998046875,1.0,3809582284,25
54.005859375,34.490234375,1.0,3809582284,25
40.5078125,32.4921875,1.5,3809582284,25
-51.9921875,32.998046875,1.5,3809582284,25
-52.4921875,33.498046875,1.5,3809582284,25
-38.4921875,33.998046875,1.5,3809582284,25
36.005859375,34.0078125,1.5,3809582284,25
-51.998046875,32.98828125,2.0,3809582284,25
46.0078125,33.005859375,2.0,3809582284,25
-41.494140625,33.005859375,-0.5,3809582284,25
52.0078125,33.994140625,-0.5,3809582284,25
50.0078125,34.494140625,-0.5,3809582284,25
1.0078125,6.49609375,0.0,3809582284,25
-0.1640625,2.6015625,-0.25,3910157407,27
0.0,2.5859375,-0.6171875,3910157407,27
0.083984375,2.28515625,-1.43359375,3910157407,27
-0.0859375,2.73828125,0.0546875,3910157407,27
-0.087890625,2.779296875,-0.08984375,3910157407,27
-0.087890625,2.814453125,0.18359375,3910157407,27
129.6640625,26.509765625,32.0,3910157407,27
28.998046875,-22.490234375,32.998046875,3910157407,27
26.5,-9.490234375,33.49609375,3910157407,27
12.0,3.00390625,33.990234375,3910157407,27
58.498046875,-57.990234375,34.0,3910157407,27
-56.001953125,22.009765625,34.5,3910157407,27
-46.001953125,31.509765625,35.0,3910157407,27
47.501953125,30.009765625,32.0,3910157407,27
30.498046875,3.509765625,32.5,3910157407,27
38.5,-53.490234375,33.498046875,3910157407,27
-14.501953125,26.0078125,33.50390625,3910157407,27
2.720703125,0.291015625,0.1328125,3910157407,27
2.779296875,0.091796875,0.134765625,3910157407,27
2.712890625,-0.77734375,0.13671875,3910157407,27
2.689453125,-0.033203125,0.1328125,3910157407,27
2.576171875,0.130859375,0.134765625,3910157407,27
2.611328125,0.158203125,0.13671875,3910157407,27
2.689453125,-0.029296875,0.1328125,3910157407,27
2.578125,0.076171875,0.134765625,3910157407,27
2.6171875,0.009765625,0.13671875,3910157407,27
2.6171875,0.013671875,0.138671875,3910157407,27
2.65234375,32.607421875,2.5,3910157407,27
13.5078125,33.0,2.5,3910157407,27
3.5078125,33.5,2.5,3910157407,27
13.009765625,34.5,2.5,3910157407,27
-29.990234375,35.498046875,2.5,3910157407,27
-3.990234375,33.498046875,3.0,3910157407,27
35.5078125,0.1328125,0.01171875,3910157407,27
-0.095703125,0.134765625,0.01171875,3910157407,27
-0.044921875,0.13671875,0.01171875,3910157407,27
-0.068359375,0.138671875,0.01171875,3910157407,27
-0.150390625,0.1328125,0.013671875,3910157407,27
0.45703125,0.134765625,0.013671875,3910157407,27
0.3359375,0.13671875,0.013671875,3910157407,27
0.140625,0.138671875,0.013671875,3910157407,27
-0.0078125,0.1328125,-0.015625,3910157407,27
-0.66015625,0.134765625,-0.015625,3910157407,27
-0.5390625,0.13671875,-0.015625,3910157407,27
35.998046875,-4.0,18.498046875,3910157407,27
41.498046875,-4.0,52.998046875,3910157407,27
41.509765625,-4.0,54.998046875,3910157407,27
34.009765625,-3.5,20.498046875,3910157407,27
34.998046875,-3.5,33.998046875,3910157407,27
35.998046875,-3.5,26.498046875,3910157407,27
36.0,-3.5,22.498046875,3910157407,27
33.998046875,-3.0,26.498046875,3910157407,27
34.0078125,-3.0,-42.501953125,3910157407,27
34.5078125,-3.0,-19.501953125,3910157407,27
35.498046875,-3.0,498.2578125,3910157407,27
0.138671875,-0.01171875,0.060546875,3910157407,27
0.130859375,-0.009765625,0.076171875,3910157407,27
0.1328125,-0.009765625,0.212890625,3910157407,27
0.134765625,-0.009765625,0.263671875,3910157407,27
0.13671875,-0.009765625,0.14453125,3910157407,27
0.140625,-0.009765625,0.0625,3910157407,27
0.1328125,-0.0078125,0.095703125,3910157407,27
0.134765625,-0.0078125,0.123046875,3910157407,27
0.0234375,0.0,-6.34375,3910157407,27
0.0,2.3984375,-1.1484375,4009684549,29
-0.083984375,2.6015625,-0.712890625,4009684549,29
-0.0859375,2.673828125,-0.59765625,4009684549,29
-0.173828125,2.703125,-0.63671875,4009684549,29
1.05859375,2.5859375,-0.404296875,4009684549,29
0.984375,2.544921875,-0.8671875,4009684549,29
-18.41015625,26.009765625,32.49609375,4009684549,29
27.498046875,-50.990234375,32.998046875,4009684549,29
35.998046875,54.509765625,33.498046875,4009684549,29
45.498046875,46.509765625,33.998046875,4009684549,29
54.998046875,31.509765625,34.498046875,4009684549,29
36.998046875,37.509765625,34.99609375,4009684549,29
53.998046875,58.509765625,35.49609375,4009684549,29
18.50390625,-40.490234375,32.99609375,4009684549,29
36.998046875,-62.490234375,33.498046875,4009684549,29
47.498046875,-61.490234375,33.998046875,4009684549,29
59.498046875,-58.990234375,34.498046875,4009684549,29
2.60546875,-0.18359375,0.134765625,4009684549,29
2.650390625,0.048828125,0.13671875,4009684549,29
2.58984375,-0.373046875,0.130859375,4009684549,29
2.494140625,-0.22265625,0.1328125,4009684549,29
2.541015625,0.0390625,0.134765625,4009684549,29
2.650390625,-0.046875,0.13671875,4009684549,29
2.654296875,-0.01171875,0.138671875,4009684549,29
2.595703125,-0.2890625,0.140625,4009684549,29
2.6796875,-0.240234375,0.142578125,4009684549,29
2.705078125,-0.3515625,0.134765625,4009684549,29
2.640625,35.23046875,2.0,4009684549,29
-24.490234375,35.5,2.0,4009684549,29
20.509765625,36.0,2.0,4009684549,29
14.009765625,36.5,2.0,4009684549,29
3.009765625,34.5,2.5,4009684549,29
-38.990234375,35.0,2.5,4009684549,29
-10.990234375,0.126953125,-0.00390625,4009684549,29
-0.462890625,0.12890625,-0.00390625,4009684549,29
-0.337890625,0.125,-0.001953125,4009684549,29
-0.341796875,0.126953125,-0.001953125,4009684549,29
-0.306640625,0.12890625,-0.001953125,4009684549,29
-0.236328125,0.130859375,-0.001953125,4009684549,29
-0.5546875,0.1328125,0.0,4009684549,29
1.15625,0.1328125,0.00390625,4009684549,29
-1.083984375,0.134765625,0.00390625,4009684549,29
-1.060546875,0.142578125,0.005859375,4009684549,29
2.490234375,0.142578125,0.0078125,4009684549,29
6.009765625,0.0,40.0,4009684549,29
-0.08203125,2.609375,-0.197265625,4110157234,31
0.0,2.658203125,-0.03515625,4110157234,31
0.0,2.6953125,0.146484375,4110157234,31
0.0,2.734375,0.1796875,4110157234,31
0.087890625,2.779296875,-0.01171875,4110157234,31
1.146484375,2.57421875,-0.1640625,4110157234,31
-46.015625,-23.490234375,32.99609375,4110157234,31
40.998046875,-11.490234375,33.498046875,4110157234,31
50.498046875,37.509765625,33.5,4110157234,31
60.498046875,19.009765625,34.0,4110157234,31
-57.001953125,-24.490234375,34.998046875,4110157234,31
24.501953125,-8.490234375,35.49609375,4110157234,31
29.501953125,-30.990234375,35.99609375,4110157234,31
42.501953125,-18.490234375,36.49609375,4110157234,31
42.00390625,-25.490234375,36.99609375,4110157234,31
34.00390625,-55.990234375,42.99609375,4110157234,31
0.01171875,12.0,43.01171875,4110157234,31
0.01171875,11.0,34.51171875,4110157234,31
23.001953125,-16.990234375,35.49609375,4110157234,31
37.001953125,4.509765625,35.998046875,4110157234,31
54.501953125,55.009765625,36.498046875,4110157234,31
58.50390625,-27.490234375,36.998046875,4110157234,31
-59.99609375,-29.490234375,42.998046875,4110157234,31
0.01171875,40.0,43.01171875,4110157234,31
0.01171875,49.5,35.01171875,4110157234,31
42.501953125,38.509765625,35.998046875,4110157234,31
49.00390625,-13.990234375,36.498046875,4110157234,31
59.00390625,17.009765625,0.142578125,4110157234,31
2.765625,0.103515625,0.14453125,4110157234,31
2.76171875,0.166015625,0.166015625,4110157234,31
0.0,3.212890625,0.16796875,4110157234,31
0.0,3.24609375,0.130859375,4110157234,31
2.4609375,0.126953125,0.1328125,4110157234,31
2.5,34.56640625,2.0,4110157234,31
-24.4921875,35.498046875,2.0,4110157234,31
-38.990234375,35.99609375,2.0,4110157234,31
-54.990234375,36.498046875,2.0,4110157234,31
12.509765625,36.5,2.0,4110157234,31
25.509765625,37.0,2.0,4110157234,31
26.009765625,33.5,2.5,4110157234,31
-59.4921875,34.0,2.5,4110157234,31
57.0078125,34.5,2.5,4110157234,31
31.509765625,35.0,2.5,4110157234,31
9.009765625,35.998046875,2.5,4110157234,31
-0.310546875,0.140625,0.009765625,4110157234,31
-0.01171875,0.142578125,0.009765625,4110157234,31
0.15625,0.14453125,0.009765625,4110157234,31
0.263671875,0.1328125,0.01171875,4110157234,31
0.33203125,0.134765625,0.01171875,4110157234,31
0.224609375,0.13671875,0.01171875,4110157234,31
0.041015625,0.138671875,0.01171875,4110157234,31
0.14453125,0.140625,0.01171875,4110157234,31
0.166015625,0.142578125,0.01171875,4110157234,31
0.203125,0.138671875,0.013671875,4110157234,31
0.5078125,0.140625,37.513671875,4110157234,31
36.5,3.5,20.5,4110157234,31
32.5,-1.5,19.498046875,4110157234,31
33.0,-1.5,39.498046875,4110157234,31
33.5,-1.5,28.498046875,4110157234,31
32.0,-1.0,24.998046875,4110157234,31
32.998046875,-1.0,-27.501953125,4110157234,31
33.0,-1.0,45.498046875,4110157234,31
33.5,-1.0,32.498046875,4110157234,31
6.0,0.0,16.0,4110157234,31
-0.16015625,2.560546875,-0.25,4210079227,33
-0.1640625,2.603515625,-0.22265625,4210079227,33
-0.166015625,2.650390625,-0.1171875,4210079227,33
-0.16796875,2.693359375,0.076171875,4210079227,33
-0.2578125,2.720703125,0.216796875,4210079227,33
-0.34765625,2.75390625,0.166015625,4210079227,33
127451.736328125,12.509765625,31.5,4210079227,33
18.498046875,-22.990234375,32.498046875,4210079227,33
27.998046875,-43.490234375,32.998046875,4210079227,33
37.498046875,-58.490234375,33.498046875,4210079227,33
45.998046875,53.009765625,33.998046875,4210079227,33
55.498046875,57.509765625,34.498046875,4210079227,33
-61.001953125,-3.990234375,32.498046875,4210079227,33
29.498046875,10.009765625,32.5,4210079227,33
39.998046875,-11.490234375,33.498046875,4210079227,33
49.998046875,-27.490234375,33.998046875,4210079227,33
60.498046875,-24.990234375,37.498046875,4210079227,33
2.693359375,-0.78515625,0.140625,4210079227,33
2.65234375,-0.783203125,0.142578125,4210079227,33
2.693359375,-0.78125,0.14453125,4210079227,33
2.712890625,-0.8515625,0.146484375,4210079227,33
2.708984375,-0.869140625,0.1484375,4210079227,33
2.673828125,-0.81640625,0.140625,4210079227,33
2.71484375,-0.67578125,0.142578125,4210079227,33
2.71484375,-0.705078125,0.14453125,4210079227,33
2.7578125,-0.5234375,0.146484375,4210079227,33
2.830078125,-0.27734375,0.1484375,4210079227,33
2.919921875,12658.48046875,2.5,4210079227,33
54.009765625,36.5,2.5,4210079227,33
31.509765625,37.0,2.5,4210079227,33
18.509765625,37.5,2.5,4210079227,33
9.009765625,38.0,2.5,4210079227,33
4.009765625,36.0,3.0,4210079227,33
26.009765625,0.142578125,0.01171875,4210079227,33
0.208984375,0.14453125,0.01171875,4210079227,33
0.23828125,0.146484375,0.01171875,4210079227,33
0.248046875,0.140625,0.013671875,4210079227,33
0.03125,0.142578125,0.013671875,4210079227,33
0.08984375,0.14453125,-0.015625,4210079227,33
0.064453125,0.146484375,-0.015625,4210079227,33
0.173828125,0.14453125,-0.013671875,4210079227,33
0.15625,0.146484375,-0.013671875,4210079227,33
0.109375,0.126953125,-0.005859375,4210079227,33
0.43359375,0.12890625,-0.005859375,4210079227,33
33.5,-1.5,55.998046875,4210079227,33
34.0,-1.5,44.498046875,4210079227,33
34.5,-1.5,22.998046875,4210079227,33
32.498046875,-1.0,26.998046875,4210079227,33
32.998046875,-1.0,-43.001953125,4210079227,33
33.0,-1.0,31.498046875,4210079227,33
33.5,-1.0,59.498046875,4210079227,33
34.0,-1.0,20.498046875,4210079227,33
34.998046875,-1.0,-55.001953125,4210079227,33
32.498046875,-0.5,47.998046875,4210079227,33
32.998046875,-0.5,498.505859375,4210079227,33
0.12890625,-0.001953125,0.68359375,4210079227,33
0.130859375,-0.001953125,0.76171875,4210079227,33
0.1328125,-0.001953125,0.6953125,4210079227,33
0.134765625,-0.001953125,0.3671875,4210079227,33
0.1328125,0.001953125,0.041015625,4210079227,33
0.1484375,0.005859375,0.06640625,4210079227,33
0.14453125,0.0078125,0.181640625,4210079227,33
0.146484375,0.0078125,0.19140625,4210079227,33
0.0234375,0.0,-26.34375,4210079227,33
-0.2421875,2.564453125,-0.052734375,15119532,35
-0.24609375,2.60546875,-0.078125,15119532,35
-0.166015625,2.65234375,-0.109375,15119532,35
-0.083984375,2.6953125,-0.13671875,15119532,35
-0.0859375,2.732421875,-0.203125,15119532,35
0.0,2.69140625,0.22265625,15119532,35
0.0,2.740234375,0.0625,15119532,35
0.0,2.779296875,-0.107421875,15119532,35
1.197265625,2.615234375,-0.630859375,15119532,35
1.212890625,2.62109375,-0.76171875,15119532,35
1.05859375,2.615234375,0.08203125,15119532,35
1.07421875,2.654296875,0.0,15119532,35
1.08984375,2.669921875,-0.353515625,15119532,35
1.197265625,2.626953125,-0.58984375,15119532,35
1.212890625,2.640625,-0.6875,15119532,35
1.23046875,2.6796875,-0.685546875,15119532,35
-0.166015625,2.53125,-0.794921875,15119532,35
-0.16796875,2.556640625,-0.8515625,15119532,35
-0.171875,2.51171875,-1.083984375,15119532,35
1.05859375,2.609375,0.193359375,15119532,35
1.07421875,2.6484375,0.177734375,15119532,35
1.103515625,2.69921875,-0.4140625,15119532,35
1.119140625,2.732421875,-0.447265625,15119532,35
1.134765625,2.78125,-0.37890625,15119532,35
3.001953125,0.0,3.125,15119532,35
1.23828125,1.39453125,-3.078125,15119532,35
-0.166015625,2.552734375,-0.7265625,15119532,35
-0.16796875,2.5859375,-0.755859375,15119532,35
-0.171875,2.607421875,-0.82421875,15119532,35
-0.173828125,2.666015625,-0.7734375,15119532,35
1.01171875,2.759765625,-0.1796875,15119532,35
1.02734375,2.796875,-0.20703125,15119532,35
1.134765625,2.798828125,-0.193359375,15119532,35
1.150390625,2.83984375,12666.349609375,15119532,35
5.50390625,-4.994140625,32.486328125,15119532,35
16.498046875,-2.490234375,32.99609375,15119532,35
27.998046875,0.509765625,33.498046875,15119532,35
34.498046875,-9.990234375,33.99609375,15119532,35
41.998046875,-24.990234375,34.49609375,15119532,35
40.498046875,55.009765625,36.99609375,15119532,35
-50.49609375,-21.490234375,37.498046875,15119532,35
-49.49609375,-9.490234375,37.998046875,15119532,35
-40.49609375,22.509765625,38.0,15119532,35
-22.49609375,49.509765625,31.5,15119532,35
51.857421875,-0.3203125,0.125,15119532,35
2.583984375,-0.384765625,0.126953125,15119532,35
2.609375,-0.5,0.12890625,15119532,35
2.619140625,-0.65234375,0.130859375,15119532,35
2.5234375,0.88671875,0.1328125,15119532,35
2.73046875,-0.40234375,0.142578125,15119532,35
2.8046875,0.037109375,0.14453125,15119532,35
2.802734375,0.1484375,0.146484375,15119532,35
2.85546875,0.390625,0.1484375,15119532,35
2.916015625,0.46875,0.123046875,15119532,35
2.56640625,-0.169921875,0.125,15119532,35
-61.490234375,32.998046875,-0.5,15119532,35
32.509765625,33.498046875,-0.5,15119532,35
35.009765625,33.998046875,-0.5,15119532,35
-11.990234375,34.49609375,-0.5,15119532,35
17.509765625,36.0,-3.5,15119532,35
16.00390625,36.509765625,-3.5,15119532,35
-30.994140625,36.5078125,-3.0,15119532,35
-16.494140625,37.0078125,-3.0,15119532,35
-31.994140625,6.0078125,0.0,15119532,35
-0.16015625,2.5625,0.220703125,115187373,37
0.0,2.63671875,0.34765625,115187373,37
0.083984375,1.103515625,2.462890625,115187373,37
-0.2578125,2.607421875,-0.806640625,115187373,37
-0.26171875,2.689453125,-0.66015625,115187373,37
-0.24609375,2.57421875,-0.41015625,115187373,37
12648.416015625,-10.990234375,33.49609375,115187373,37
39.498046875,7.509765625,33.998046875,115187373,37
48.998046875,10.509765625,34.498046875,115187373,37
62.498046875,29.009765625,34.998046875,115187373,37
-56.001953125,20.009765625,32.498046875,115187373,37
17.998046875,14.009765625,32.998046875,115187373,37
25.998046875,-0.990234375,33.49609375,115187373,37
41.498046875,44.009765625,33.5,115187373,37
56.498046875,5.009765625,34.0,115187373,37
-61.501953125,-32.490234375,34.998046875,115187373,37
-49.501953125,-42.990234375,31.998046875,115187373,37
1.498046875,-4.990234375,32.49609375,115187373,37
12.998046875,-1.490234375,32.99609375,115187373,37
28.998046875,16.009765625,33.498046875,115187373,37
45.498046875,34.009765625,33.5,115187373,37
55.998046875,23.509765625,34.0,115187373,37
-61.001953125,-2.990234375,32.498046875,115187373,37
18.498046875,31.009765625,32.998046875,115187373,37
27.998046875,26.509765625,33.498046875,115187373,37
45.998046875,-10.490234375,33.998046875,115187373,37
55.998046875,32.509765625,34.0,115187373,37
-61.001953125,-17.990234375,49.943359375,115187373,37
1.580078125,2.353515625,0.140625,115187373,37
1.5,2.451171875,0.130859375,115187373,37
2.615234375,-0.74609375,0.1328125,115187373,37
2.634765625,-0.853515625,0.13671875,115187373,37
1.193359375,2.501953125,0.138671875,115187373,37
1.056640625,286.10546875,3.0,115187373,37
46.50390625,35.009765625,3.5,115187373,37
-16.49609375,35.5078125,3.5,115187373,37
16.00390625,36.009765625,3.5,115187373,37
41.00390625,33.509765625,-4.0,115187373,37
18.5078125,34.0,-4.0,115187373,37
-0.990234375,34.998046875,-4.0,115187373,37
35.009765625,35.498046875,-4.0,115187373,37
40.509765625,35.998046875,-4.0,115187373,37
57.509765625,36.498046875,-4.0,115187373,37
-55.990234375,33.498046875,-3.5,115187373,37
0.19921875,0.130859375,-0.013671875,115187373,37
0.1875,0.1328125,-0.013671875,115187373,37
0.140625,0.134765625,-0.013671875,115187373,37
-0.61328125,0.13671875,-0.013671875,115187373,37
-0.4921875,0.138671875,-0.013671875,115187373,37
-0.48828125,0.140625,-0.013671875,115187373,37
-0.498046875,0.13671875,-0.01171875,115187373,37
-0.435546875,0.138671875,-0.01171875,115187373,37
-0.408203125,0.140625,-0.01171875,115187373,37
-0.447265625,0.13671875,-0.009765625,115187373,37
-0.326171875,0.138671875,12663.490234375,115187373,37
36.498046875,-2.5,34.498046875,115187373,37
42.5,-2.5,62.998046875,115187373,37
33.01171875,-2.0,20.498046875,115187373,37
34.498046875,-2.0,17.498046875,115187373,37
36.498046875,-2.0,52.498046875,115187373,37
36.998046875,-2.0,-63.501953125,115187373,37
42.498046875,-2.0,55.998046875,115187373,37
42.51171875,-2.0,-53.501953125,115187373,37
6.01171875,0.0,16.0,115187373,37
0.0,2.53515625,-0.09375,215174947,39
0.0,2.576171875,-0.099609375,215174947,39
-0.08203125,2.6171875,-0.017578125,215174947,39
-0.166015625,2.654296875,0.009765625,215174947,39
-0.083984375,2.677734375,-0.33203125,215174947,39
-0.0859375,2.7109375,-0.392578125,215174947,39
12668.326171875,-57.990234375,32.49609375,215174947,39
29.0,-36.490234375,32.998046875,215174947,39
40.998046875,-7.490234375,33.498046875,215174947,39
51.498046875,0.509765625,33.5,215174947,39
61.5,0.509765625,34.0,215174947,39
-62.0,35.509765625,34.998046875,215174947,39
-55.001953125,16.009765625,31.998046875,215174947,39
19.5,-2.490234375,32.498046875,215174947,39
30.0,-10.490234375,32.998046875,215174947,39
40.5,-5.990234375,33.498046875,215174947,39
50.5,26.509765625,33.5,215174947,39
59.5,56.509765625,34.5,215174947,39
-46.501953125,-0.490234375,31.998046875,215174947,39
18.5,40.509765625,32.0,215174947,39
29.0,35.509765625,32.5,215174947,39
40.0,20.509765625,33.0,215174947,39
51.0,-4.990234375,33.998046875,215174947,39
54.5,-27.490234375,34.0,215174947,39
44.498046875,48.509765625,34.501953125,215174947,39
-52.501953125,54.009765625,32.0,215174947,39
25.5,-49.490234375,32.5,215174947,39
37.0,-55.990234375,33.0,215174947,39
48.5,57.009765625,33.5,215174947,39
46.498046875,8.509765625,34.498046875,215174947,39
55.998046875,-8.490234375,34.99609375,215174947,39
59.998046875,-40.490234375,33.99609375,215174947,39
52.498046875,53.509765625,34.498046875,215174947,39
-61.501953125,-63.990234375,49.939453125,215174947,39
2.78125,-0.322265625,0.13671875,215174947,39
2.8203125,-0.416015625,0.130859375,215174947,39
2.716796875,-0.134765625,0.1328125,215174947,39
2.759765625,-0.046875,0.134765625,215174947,39
2.798828125,-0.07421875,0.13671875,215174947,39
2.833984375,-0.205078125,0.13671875,215174947,39
1.880859375,2.037109375,0.1328125,215174947,39
2.474609375,-0.833984375,0.13671875,215174947,39
2.619140625,-0.431640625,0.138671875,215174947,39
2.63671875,-0.541015625,0.1328125,215174947,39
-8.4921875,34.99609375,-3.5,215174947,39
-10.490234375,35.49609375,-3.5,215174947,39
-29.490234375,35.99609375,-3.5,215174947,39
56.009765625,42.49609375,-3.5,215174947,39
-7.498046875,34.486328125,-3.0,215174947,39
58.509765625,34.998046875,-3.0,215174947,39
44.509765625,35.498046875,-3.0,215174947,39
28.509765625,35.998046875,-3.0,215174947,39
1.509765625,36.498046875,-3.0,215174947,39
5.509765625,41.998046875,-3.0,215174947,39
-16.994140625,42.48828125,-3.0,215174947,39
-2.83984375,0.130859375,-0.009765625,215174947,39
-0.38671875,0.1328125,-0.009765625,215174947,39
-0.923828125,0.134765625,-0.009765625,215174947,39
0.171875,0.13671875,-0.009765625,215174947,39
-0.109375,0.138671875,-0.009765625,215174947,39
-0.10546875,0.140625,-0.009765625,215174947,39
-0.12890625,0.125,-0.0078125,215174947,39
0.49609375,0.126953125,-0.0078125,215174947,39
0.388671875,0.0234375,0.0,215174947,39
-0.23828125,2.525390625,-0.01953125,315192718,41
-0.16015625,2.572265625,0.01171875,315192718,41
-0.1640625,2.61328125,-0.01171875,315192718,41
-0.166015625,2.65234375,-0.09375,315192718,41
0.083984375,2.6875,0.25,315192718,41
0.0,2.615234375,0.81640625,315192718,41
-52.04296875,-62.990234375,34.998046875,315192718,41
29.50390625,-21.490234375,35.498046875,315192718,41
30.00390625,-0.490234375,35.998046875,315192718,41
49.00390625,8.509765625,31.5,315192718,41
13.5,38.009765625,32.498046875,315192718,41
23.0,33.009765625,32.998046875,315192718,41
36.5,54.509765625,33.498046875,315192718,41
47.5,-57.490234375,33.5,315192718,41
9.50390625,-33.990234375,34.498046875,315192718,41
28.501953125,-23.990234375,34.998046875,315192718,41
30.00390625,-9.990234375,35.498046875,315192718,41
2.654296875,0.0,0.126953125,315192718,41
2.650390625,0.125,0.12890625,315192718,41
2.671875,-0.390625,0.130859375,315192718,41
2.556640625,0.29296875,0.1328125,315192718,41
2.607421875,0.162109375,0.134765625,315192718,41
2.646484375,0.142578125,0.13671875,315192718,41
2.68359375,0.181640625,0.123046875,315192718,41
2.537109375,0.44140625,0.125,315192718,41
2.58203125,0.4296875,0.126953125,315192718,41
2.6328125,0.3671875,0.12890625,315192718,41
2.6875,33.73828125,1.5,315192718,41
6.009765625,31.5,2.0,315192718,41
28.009765625,32.001953125,2.0,315192718,41
38.509765625,32.501953125,2.0,315192718,41
-46.990234375,33.001953125,2.0,315192718,41
25.009765625,33.501953125,2.0,315192718,41
-37.490234375,49.9375,0.0078125,315192718,41
2.669921875,0.125,0.009765625,315192718,41
0.615234375,0.126953125,0.009765625,315192718,41
0.564453125,0.12890625,0.009765625,315192718,41
0.48828125,0.130859375,0.009765625,315192718,41
0.087890625,0.125,0.01171875,315192718,41
0.685546875,0.126953125,0.01171875,315192718,41
0.6796875,0.12890625,0.01171875,315192718,41
0.86328125,0.130859375,0.01171875,315192718,41
2.248046875,0.1328125,0.01171875,315192718,41
2.580078125,0.134765625,0.01171875,315192718,41
33.509765625,3.5,23.5,315192718,41
34.0078125,3.5,39.0,315192718,41
34.5078125,3.5,30.5,315192718,41
33.5078125,-4.0,34.498046875,315192718,41
34.498046875,-4.0,-48.501953125,315192718,41
34.998046875,-4.0,-46.001953125,315192718,41
35.498046875,-4.0,42.498046875,315192718,41
33.99609375,-3.5,43.998046875,315192718,41
34.498046875,-3.5,-26.001953125,315192718,41
34.998046875,-3.5,-18.501953125,315192718,41
35.498046875,-3.5,58.998046875,315192718,41
35.998046875,-3.5,16.998046875,315192718,41
33.494140625,-3.0,17.498046875,315192718,41
33.5,-3.0,46.998046875,315192718,41
34.0,-3.0,-50.001953125,315192718,41
34.5,-3.0,-28.501953125,315192718,41
35.49609375,-3.0,63.498046875,315192718,41
33.49609375,-2.5,20.498046875,315192718,41
33.5,-2.5,43.498046875,315192718,41
6.0,0.0,40.0,315192718,41
-0.23828125,2.5234375,-0.08203125,415188063,43
-0.16015625,2.572265625,-0.021484375,415188063,43
-0.1640625,2.611328125,0.11328125,415188063,43
-0.25,2.5234375,0.798828125,415188063,43
-0.083984375,2.21875,-1.537109375,415188063,43
0.0,2.529296875,-1.0546875,415188063,43
-17.369140625,3.509765625,34.5,415188063,43
19.50390625,27.509765625,32.0,415188063,43
14.998046875,12.009765625,32.998046875,415188063,43
-6.001953125,11.5078125,33.49609375,415188063,43
44.5,32.509765625,33.998046875,415188063,43
60.0,-47.990234375,34.498046875,415188063,43
-57.5,-46.490234375,34.998046875,415188063,43
-49.5,50.509765625,32.998046875,415188063,43
40.5,-8.490234375,33.498046875,415188063,43
50.5,27.009765625,33.5,415188063,43
60.998046875,29.509765625,34.0,415188063,43
2.779296875,0.0390625,0.134765625,415188063,43
2.47265625,-0.3203125,0.126953125,415188063,43
2.60546875,0.525390625,0.12890625,415188063,43
2.6640625,0.435546875,0.130859375,415188063,43
2.70703125,0.4140625,0.1328125,415188063,43
2.69140625,0.69921875,0.134765625,415188063,43
2.478515625,-0.712890625,0.126953125,415188063,43
2.59375,0.587890625,0.12890625,415188063,43
2.654296875,0.498046875,0.130859375,415188063,43
2.716796875,0.3515625,0.1328125,415188063,43
2.501953125,-0.4453125,0.134765625,415188063,43
2.490234375,-0.66796875,0.126953125,415188063,43
2.587890625,0.603515625,0.12890625,415188063,43
2.6484375,0.52734375,0.130859375,415188063,43
2.71484375,0.375,0.134765625,415188063,43
2.595703125,0.53515625,0.13671875,415188063,43
2.650390625,31.955078125,-3.5,415188063,43
-63.990234375,32.498046875,-3.5,415188063,43
51.509765625,32.998046875,-3.5,415188063,43
-7.490234375,31.99609375,-3.0,415188063,43
-49.990234375,32.498046875,-3.0,415188063,43
-28.490234375,32.998046875,-3.0,415188063,43
-16.990234375,33.998046875,-3.0,415188063,43
-50.990234375,30.998046875,-2.5,415188063,43
-47.9921875,31.49609375,-2.5,415188063,43
-43.4921875,31.99609375,-2.5,415188063,43
9.509765625,32.498046875,-2.5,415188063,43
0.119140625,0.126953125,-0.009765625,415188063,43
0.349609375,0.12890625,-0.009765625,415188063,43
-0.28515625,0.130859375,-0.009765625,415188063,43
-0.201171875,0.1328125,-0.009765625,415188063,43
-0.4609375,0.119140625,-0.0078125,415188063,43
-0.4765625,0.12109375,-0.0078125,415188063,43
-0.388671875,0.123046875,-0.0078125,415188063,43
-0.158203125,0.125,-0.0078125,415188063,43
0.2265625,0.126953125,-0.0078125,415188063,43
-0.09765625,0.12890625,-0.0078125,415188063,43
-0.103515625,0.130859375,-0.0078125,415188063,43
-0.154296875,0.1328125,-0.0078125,415188063,43
-0.283203125,0.119140625,-0.005859375,415188063,43
-0.4765625,0.12109375,-0.005859375,415188063,43
-0.380859375,0.123046875,-0.005859375,415188063,43
-0.548828125,0.125,-0.005859375,415188063,43
-0.4140625,0.126953125,-0.005859375,415188063,43
-0.17578125,0.12890625,-0.005859375,415188063,43
-0.15234375,0.130859375,-0.005859375,415188063,43
-0.2734375,0.0234375,0.0,415188063,43
-0.23828125,2.48046875,-0.466796875,515178129,45
-0.16015625,2.55078125,-0.32421875,515178129,45
-0.08203125,2.435546875,-0.95703125,515178129,45
-0.166015625,1.341796875,2.2890625,515178129,45
-0.16796875,2.427734375,1.16796875,515178129,45
-0.171875,2.55859375,0.966796875,515178129,45
12.04296875,26.009765625,31.501953125,515178129,45
10.998046875,21.509765625,32.498046875,515178129,45
15.498046875,-11.490234375,32.99609375,515178129,45
20.998046875,-30.490234375,33.49609375,515178129,45
30.498046875,-40.490234375,33.99609375,515178129,45
18.498046875,14.009765625,30.99609375,515178129,45
-28.501953125,-47.9921875,31.49609375,515178129,45
-27.001953125,48.5078125,31.99609375,515178129,45
17.998046875,-51.990234375,32.498046875,515178129,45
21.498046875,19.009765625,32.998046875,515178129,45
28.498046875,-0.490234375,33.49609375,515178129,45
2.6328125,-0.595703125,0.130859375,515178129,45
2.580078125,-0.92578125,0.119140625,515178129,45
2.404296875,-0.626953125,0.12109375,515178129,45
2.443359375,-0.634765625,0.123046875,515178129,45
2.470703125,-0.693359375,0.125,515178129,45
2.611328125,-0.189453125,0.126953125,515178129,45
2.41015625,-1.111328125,0.130859375,515178129,45
2.71875,0.087890625,0.1328125,515178129,45
2.76171875,-0.216796875,0.12109375,515178129,45
2.4609375,-0.568359375,0.123046875,515178129,45
2.53125,-0.4140625,0.125,515178129,45
2.6015625,-0.16015625,0.126953125,515178129,45
2.646484375,0.029296875,0.12890625,515178129,45
2.6875,-0.021484375,0.130859375,515178129,45
2.7265625,-0.119140625,0.1328125,515178129,45
2.76171875,-0.19921875,0.12109375,515178129,45
2.498046875,12653.6328125,2.5,515178129,45
56.009765625,32.498046875,2.5,515178129,45
-37.990234375,32.998046875,2.5,515178129,45
-2.490234375,33.498046875,2.5,515178129,45
17.009765625,33.5,2.5,515178129,45
11.009765625,31.5,3.0,515178129,45
38.509765625,32.0,3.0,515178129,45
-12.990234375,32.998046875,3.0,515178129,45
-13.990234375,33.498046875,3.0,515178129,45
-47.990234375,33.998046875,3.0,515178129,45
-57.490234375,31.498046875,3.5,515178129,45
-0.697265625,0.123046875,0.013671875,515178129,45
-0.80078125,0.126953125,0.013671875,515178129,45
-0.0625,0.12890625,0.013671875,515178129,45
-0.091796875,0.130859375,0.013671875,515178129,45
-0.123046875,0.12109375,-0.015625,515178129,45
1.951171875,0.123046875,-0.015625,515178129,45
1.974609375,0.125,-0.015625,515178129,45
2.060546875,0.12890625,-0.015625,515178129,45
-0.587890625,0.12890625,-0.013671875,515178129,45
-0.3984375,0.130859375,-0.013671875,515178129,45
-0.328125,0.1328125,12652.486328125,515178129,45
32.998046875,-3.0,27.998046875,515178129,45
33.498046875,-3.0,-32.501953125,515178129,45
33.998046875,-3.0,2.498046875,515178129,45
34.498046875,-3.0,-44.501953125,515178129,45
34.998046875,-3.0,57.998046875,515178129,45
32.998046875,-2.5,49.498046875,515178129,45
33.498046875,-2.5,55.998046875,515178129,45
33.998046875,-2.5,1.998046875,515178129,45
6.498046875,0.0,40.0,515178129,45
-0.080078125,2.51953125,-0.275390625,615189104,47
-0.080078125,2.55859375,-0.296875,615189104,47
-0.08203125,2.587890625,-0.392578125,615189104,47
1.080078125,2.208984375,-1.009765625,615189104,47
1.181640625,2.37109375,-0.51953125,615189104,47
1.19921875,2.44921875,-0.26953125,615189104,47
12638.7578125,11.009765625,32.0,615189104,47
26.998046875,-31.490234375,32.998046875,615189104,47
-33.99609375,-11.4921875,33.49609375,615189104,47
-9.99609375,-45.4921875,33.998046875,615189104,47
-11.99609375,-58.9921875,34.498046875,615189104,47
10.00390625,-27.990234375,34.998046875,615189104,47
-46.501953125,-2.490234375,32.498046875,615189104,47
-27.498046875,24.0078125,32.998046875,615189104,47
-11.498046875,-57.9921875,33.498046875,615189104,47
-10.49609375,-48.4921875,33.998046875,615189104,47
8.00390625,-57.490234375,34.498046875,615189104,47
20.00390625,-7.990234375,34.998046875,615189104,47
-49.001953125,60.009765625,32.5,615189104,47
-20.998046875,-58.9921875,33.49609375,615189104,47
7.001953125,-48.490234375,33.998046875,615189104,47
10.50390625,12.509765625,34.0,615189104,47
18.50390625,44.509765625,34.5,615189104,47
-49.001953125,33.509765625,32.5,615189104,47
-1.498046875,-26.9921875,33.498046875,615189104,47
0.00390625,-30.490234375,33.998046875,615189104,47
18.501953125,15.009765625,34.0,615189104,47
57.998046875,-0.490234375,34.5,615189104,47
-63.001953125,18.009765625,32.501953125,615189104,47
-0.998046875,7.0078125,33.0,615189104,47
9.001953125,10.009765625,33.5,615189104,47
4.50390625,-41.990234375,34.0,615189104,47
-61.501953125,-28.990234375,34.998046875,615189104,47
-55.001953125,28.009765625,49.935546875,615189104,47
2.712890625,-0.19921875,0.1328125,615189104,47
2.748046875,-0.25390625,0.134765625,615189104,47
2.78515625,-0.296875,0.13671875,615189104,47
2.83203125,-0.322265625,0.130859375,615189104,47
2.712890625,-0.173828125,0.1328125,615189104,47
2.75,-0.22265625,0.134765625,615189104,47
2.80078125,-0.23828125,0.13671875,615189104,47
2.822265625,-0.322265625,0.126953125,615189104,47
2.421875,0.193359375,0.12890625,615189104,47
2.494140625,0.208984375,0.130859375,615189104,47
-3.49609375,34.0078125,-4.0,615189104,47
-4.49609375,34.5078125,-4.0,615189104,47
4.50390625,35.009765625,-4.0,615189104,47
0.50390625,32.509765625,-3.5,615189104,47
25.0078125,33.001953125,-3.5,615189104,47
-33.4921875,33.9921875,-3.5,615189104,47
17.501953125,34.009765625,-3.5,615189104,47
18.00390625,34.509765625,-3.5,615189104,47
18.50390625,35.009765625,-3.5,615189104,47
15.50390625,31.509765625,-3.0,615189104,47
32.009765625,32.498046875,-3.0,615189104,47
34.009765625,32.998046875,-3.0,615189104,47
50.009765625,33.498046875,-3.0,615189104,47
-63.490234375,33.998046875,-3.0,615189104,47
25.5078125,34.005859375,-3.0,615189104,47
10.50390625,34.509765625,-3.0,615189104,47
24.50390625,31.009765625,-2.5,615189104,47
-44.990234375,31.998046875,-2.5,615189104,47
-52.990234375,32.498046875,-2.5,615189104,47
-50.990234375,6.498046875,0.0,615189104,47
0.0,2.501953125,-0.419921875,715186963,49
0.0,2.5390625,-0.435546875,715186963,49
0.08203125,2.5625,-0.525390625,715186963,49
-0.498046875,0.92578125,-2.44140625,715186963,49
-0.337890625,1.28125,2.3515625,715186963,49
0.0,2.48828125,-0.19921875,715186963,49
12627.919921875,60.009765625,31.998046875,715186963,49
16.0,60.009765625,32.498046875,715186963,49
27.0,62.509765625,32.998046875,715186963,49
37.0,59.009765625,33.498046875,715186963,49
39.0,-0.990234375,31.49609375,715186963,49
8.0,-38.490234375,31.998046875,715186963,49
18.5,-36.990234375,32.498046875,715186963,49
30.0,-15.490234375,32.998046875,715186963,49
40.5,-2.990234375,33.498046875,715186963,49
49.5,-50.990234375,33.998046875,715186963,49
18.99609375,47.505859375,34.0078125,715186963,49
10.50390625,24.009765625,31.5,715186963,49
7.5,8.509765625,32.498046875,715186963,49
29.5,-14.990234375,32.998046875,715186963,49
40.5,19.509765625,33.0,715186963,49
51.0,-11.490234375,33.998046875,715186963,49
-4.49609375,42.0078125,34.498046875,715186963,49
-3.49609375,57.5078125,34.998046875,715186963,49
5.00390625,49.509765625,32.498046875,715186963,49
30.0,9.509765625,32.5,715186963,49
36.5,-57.490234375,33.5,715186963,49
0.50390625,-28.990234375,34.498046875,715186963,49
10.50390625,-21.990234375,34.998046875,715186963,49
19.50390625,-26.490234375,35.498046875,715186963,49
28.50390625,-42.990234375,33.498046875,715186963,49
35.49609375,3.001953125,33.509765625,715186963,49
29.99609375,21.001953125,34.009765625,715186963,49
10.50390625,10.009765625,0.134765625,715186963,49
2.578125,0.04296875,0.13671875,715186963,49
2.6171875,0.01953125,0.12890625,715186963,49
0.0,-2.642578125,0.130859375,715186963,49
0.0,-2.681640625,0.1328125,715186963,49
0.0,-2.765625,0.134765625,715186963,49
2.52734375,-0.513671875,0.13671875,715186963,49
2.49609375,-0.787109375,0.130859375,715186963,49
0.775390625,2.537109375,0.1328125,715186963,49
2.533203125,-0.478515625,0.134765625,715186963,49
2.5234375,-0.53125,0.13671875,715186963,49
-27.490234375,35.99609375,3.5,715186963,49
-54.990234375,33.99609375,-4.0,715186963,49
-41.990234375,34.498046875,-4.0,715186963,49
-7.5,34.5078125,-4.0,715186963,49
-13.5,35.0078125,-4.0,715186963,49
-21.498046875,35.5078125,-4.0,715186963,49
8.509765625,42.498046875,-4.0,715186963,49
3.5078125,33.005859375,-3.5,715186963,49
-34.990234375,33.998046875,-3.5,715186963,49
-36.990234375,34.498046875,-3.5,715186963,49
-36.990234375,34.998046875,-3.5,715186963,49
42.5,35.009765625,-3.5,715186963,49
-61.0,33.009765625,-3.0,715186963,49
10.509765625,33.5,-3.0,715186963,49
-6.990234375,34.498046875,-3.0,715186963,49
-20.490234375,34.998046875,-3.0,715186963,49
-40.990234375,33.498046875,-2.5,715186963,49
-45.490234375,33.5,-2.5,715186963,49
50.009765625,34.0,-2.5,715186963,49
33.509765625,6.0,0.0,715186963,49
0.0,2.513671875,-0.33203125,815183606,51
0.0,2.53125,-0.484375,815183606,51
-0.08203125,2.546875,-0.60546875,815183606,51
-0.25,2.625,-0.349609375,815183606,51
-0.505859375,2.630859375,0.333984375,815183606,51
