0.138671875,0.0,0.103515625,16578832,86
0.138671875,0.001953125,0.0703125,16578832,86
0.138671875,0.00390625,0.068359375,16578832,86
0.0234375,0.0,-6.34375,16578832,86
-1.09765625,2.466796875,0.041015625,116473866,88
-1.02734375,2.5390625,0.111328125,116473866,88
-1.146484375,2.578125,0.01953125,116473866,88
-1.07421875,2.654296875,0.06640625,116473866,88
-1.1796875,2.625,0.38671875,116473866,88
-1.197265625,2.67578125,0.28125,116473866,88
126619.90234375,19.0078125,33.5,116473866,88
1.494140625,18.509765625,34.0,116473866,88
20.494140625,11.009765625,34.5,116473866,88
29.994140625,-17.990234375,35.498046875,116473866,88
30.494140625,-4.990234375,35.998046875,116473866,88
39.494140625,22.509765625,36.0,116473866,88
58.994140625,-17.990234375,36.998046875,116473866,88
-60.005859375,-38.490234375,33.498046875,116473866,88
-9.505859375,46.5078125,34.5,116473866,88
30.494140625,3.009765625,35.0,116473866,88
29.994140625,14.509765625,35.5,116473866,88
2.650390625,0.138671875,0.140625,116473866,88
2.728515625,0.068359375,0.142578125,116473866,88
2.728515625,-0.001953125,0.14453125,116473866,88
2.72265625,0.037109375,0.134765625,116473866,88
2.61328125,0.125,0.13671875,116473866,88
2.61328125,0.12109375,0.138671875,116473866,88
2.68359375,0.208984375,0.140625,116473866,88
2.71875,0.259765625,0.142578125,116473866,88
2.720703125,0.197265625,0.126953125,116473866,88
2.630859375,0.185546875,0.12890625,116473866,88
2.673828125,33.658203125,-3.0,116473866,88
39.509765625,34.0,-3.0,116473866,88
30.009765625,32.5,-2.5,116473866,88
-49.990234375,33.0,-2.5,116473866,88
-32.490234375,33.5,-2.5,116473866,88
-5.490234375,34.0,-2.5,116473866,88
29.509765625,0.330078125,-0.009765625,116473866,88
0.525390625,0.13671875,-0.009765625,116473866,88
0.361328125,0.138671875,-0.009765625,116473866,88
0.47265625,0.126953125,-0.0078125,116473866,88
0.0546875,0.12890625,-0.0078125,116473866,88
0.00390625,0.130859375,-0.0078125,116473866,88
-0.546875,0.1328125,-0.0078125,116473866,88
-0.4453125,0.134765625,-0.0078125,116473866,88
-0.45703125,0.126953125,-0.005859375,116473866,88
0.189453125,0.12890625,-0.005859375,116473866,88
0.11328125,0.130859375,-0.005859375,116473866,88
-0.14453125,0.1328125,-0.005859375,116473866,88
-0.134765625,0.134765625,-0.005859375,116473866,88
-0.01171875,0.126953125,-0.00390625,116473866,88
0.361328125,0.12890625,-0.00390625,116473866,88
0.23828125,0.130859375,-0.00390625,116473866,88
-0.1953125,0.1328125,-0.00390625,116473866,88
0.01171875,0.134765625,-0.00390625,116473866,88
0.232421875,0.138671875,-0.001953125,116473866,88
0.3984375,0.140625,-0.001953125,116473866,88
0.509765625,0.12890625,0.0,116473866,88
0.970703125,0.130859375,9.5,116473866,88
34.501953125,-2.5,6.998046875,116473866,88
35.001953125,-2.5,16.998046875,116473866,88
35.998046875,-2.5,28.998046875,116473866,88
6.498046875,0.0,16.0,116473866,88
0.498046875,2.60546875,-0.1796875,216601102,90
0.505859375,2.6484375,-0.150390625,216601102,90
0.427734375,2.70703125,0.01953125,216601102,90
-1.1796875,2.638671875,0.28125,216601102,90
-1.197265625,2.666015625,0.373046875,216601102,90
-1.1640625,2.568359375,0.50390625,216601102,90
12678.8203125,-6.990234375,36.0,216601102,90
42.994140625,-34.490234375,36.5,216601102,90
-62.505859375,-55.490234375,35.0,216601102,90
-2.505859375,-49.4921875,35.501953125,216601102,90
39.494140625,-9.990234375,36.0,216601102,90
63.494140625,-42.990234375,36.5,216601102,90
-54.005859375,-47.490234375,37.0,216601102,90
-53.505859375,-46.490234375,35.5,216601102,90
36.494140625,5.509765625,36.001953125,216601102,90
57.994140625,-5.490234375,36.5,216601102,90
58.994140625,-9.490234375,37.0,216601102,90
2.724609375,0.47265625,0.134765625,216601102,90
2.712890625,0.333984375,0.13671875,216601102,90
2.751953125,0.330078125,0.130859375,216601102,90
2.642578125,0.240234375,0.1328125,216601102,90
2.671875,0.33984375,0.134765625,216601102,90
2.71484375,0.458984375,0.13671875,216601102,90
2.73828125,0.55859375,0.12890625,216601102,90
2.619140625,0.2890625,0.130859375,216601102,90
2.646484375,0.37890625,0.1328125,216601102,90
2.68359375,0.509765625,0.134765625,216601102,90
2.697265625,0.640625,0.13671875,216601102,90
2.74609375,0.3828125,0.126953125,216601102,90
2.625,0.0546875,0.12890625,216601102,90
2.640625,0.251953125,0.130859375,216601102,90
2.6171875,0.552734375,0.1328125,216601102,90
2.599609375,0.890625,0.134765625,216601102,90
2.70703125,35.376953125,-2.5,216601102,90
5.509765625,35.501953125,-2.5,216601102,90
39.009765625,31.501953125,-2.0,216601102,90
12.509765625,32.0,-2.0,216601102,90
36.509765625,32.5,-2.0,216601102,90
54.509765625,33.0,-2.0,216601102,90
-56.990234375,34.0,-2.0,216601102,90
49.009765625,34.5,-2.0,216601102,90
-19.490234375,35.0,-2.0,216601102,90
24.509765625,38.501953125,-2.0,216601102,90
13.0,39.48828125,-2.0,216601102,90
-2.724609375,0.123046875,-0.005859375,216601102,90
0.24609375,0.125,-0.005859375,216601102,90
0.2734375,0.126953125,-0.005859375,216601102,90
0.3359375,0.12890625,-0.005859375,216601102,90
0.4609375,0.130859375,-0.005859375,216601102,90
0.087890625,0.1328125,-0.005859375,216601102,90
0.326171875,0.150390625,-0.005859375,216601102,90
-2.7734375,0.125,-0.00390625,216601102,90
0.318359375,0.126953125,-0.00390625,216601102,90
0.197265625,0.126953125,-0.001953125,216601102,90
-0.5859375,0.12890625,12661.498046875,216601102,90
33.998046875,-0.5,27.498046875,216601102,90
35.498046875,-0.5,41.498046875,216601102,90
35.998046875,-0.5,-54.001953125,216601102,90
36.498046875,-0.5,-62.501953125,216601102,90
36.5,-0.5,62.498046875,216601102,90
36.498046875,-0.5,50.998046875,216601102,90
36.998046875,-0.5,56.498046875,216601102,90
6.009765625,0.0,16.0,216601102,90
0.474609375,2.490234375,-0.017578125,316387497,92
0.564453125,2.515625,-0.0078125,316387497,92
0.572265625,2.5546875,-0.021484375,316387497,92
0.498046875,2.607421875,-0.162109375,316387497,92
0.505859375,2.626953125,-0.369140625,316387497,92
0.599609375,2.66796875,-0.197265625,316387497,92
555.109375,0.009765625,31.0,316387497,92
-4.0,47.0078125,31.5,316387497,92
7.0,40.509765625,32.0,316387497,92
17.0,42.509765625,32.5,316387497,92
28.0,-22.490234375,33.498046875,316387497,92
31.501953125,-63.990234375,33.998046875,316387497,92
44.501953125,-13.990234375,34.498046875,316387497,92
61.5,52.009765625,31.5,316387497,92
3.0,-46.490234375,32.0,316387497,92
13.0,-42.990234375,32.5,316387497,92
31.5,-32.990234375,33.498046875,316387497,92
2.65234375,-0.0078125,0.130859375,316387497,92
2.68359375,0.220703125,0.1328125,316387497,92
2.69921875,0.287109375,0.134765625,316387497,92
2.728515625,0.169921875,0.12890625,316387497,92
2.611328125,0.46484375,0.130859375,316387497,92
2.642578125,0.513671875,0.1328125,316387497,92
2.689453125,0.373046875,0.134765625,316387497,92
2.73046875,0.359375,0.13671875,316387497,92
2.8125,0.021484375,0.1328125,316387497,92
2.640625,0.52734375,0.134765625,316387497,92
2.7109375,35.48046875,2.0,316387497,92
13.009765625,34.001953125,2.5,316387497,92
24.009765625,34.501953125,2.5,316387497,92
21.509765625,35.501953125,-2.5,316387497,92
-9.990234375,36.0,-2.5,316387497,92
-4.490234375,35.0,-2.0,316387497,92
-25.490234375,0.138671875,-0.0078125,316387497,92
0.486328125,0.140625,-0.0078125,316387497,92
0.55078125,0.13671875,-0.005859375,316387497,92
0.458984375,0.138671875,-0.005859375,316387497,92
0.50390625,0.140625,-0.005859375,316387497,92
0.609375,0.13671875,-0.00390625,316387497,92
0.423828125,0.138671875,-0.00390625,316387497,92
0.580078125,0.140625,-0.00390625,316387497,92
1.1640625,0.142578125,-0.00390625,316387497,92
0.00390625,0.14453125,-0.00390625,316387497,92
0.08984375,0.12890625,-0.001953125,316387497,92
33.998046875,-0.5,22.498046875,316387497,92
35.498046875,-0.5,38.998046875,316387497,92
35.5,-0.5,48.498046875,316387497,92
36.5,-0.5,-58.001953125,316387497,92
37.0,-0.5,60.498046875,316387497,92
6.0,0.0,40.0,316387497,92
-1.1640625,2.61328125,-0.126953125,416627890,94
-1.08984375,2.69140625,0.060546875,416627890,94
-1.197265625,2.68359375,0.2109375,416627890,94
-1.306640625,2.66796875,0.3046875,416627890,94
-1.1640625,2.587890625,-0.390625,416627890,94
-1.1796875,2.638671875,-0.279296875,416627890,94
12698.802734375,18.009765625,36.5,416627890,94
40.994140625,-29.490234375,35.0,416627890,94
29.494140625,7.509765625,35.998046875,416627890,94
45.994140625,57.509765625,36.498046875,416627890,94
38.494140625,17.009765625,36.5,416627890,94
24.994140625,-7.490234375,33.5,416627890,94
41.001953125,56.009765625,34.498046875,416627890,94
53.001953125,-47.490234375,34.998046875,416627890,94
-58.498046875,-18.490234375,32.498046875,416627890,94
17.0,40.009765625,32.5,416627890,94
30.5,47.509765625,33.0,416627890,94
40.5,57.509765625,33.5,416627890,94
49.001953125,6.509765625,34.0,416627890,94
63.0,12.509765625,34.5,416627890,94
-55.5,38.009765625,35.0,416627890,94
-54.498046875,50.009765625,39.0,416627890,94
0.0078125,-5.0,39.986328125,416627890,94
0.0078125,5.0,32.48828125,416627890,94
18.0,-55.490234375,32.5,416627890,94
28.5,-55.990234375,33.0,416627890,94
37.0,-41.990234375,33.5,416627890,94
48.5,-24.490234375,0.1328125,416627890,94
2.708984375,0.455078125,0.134765625,416627890,94
2.751953125,0.337890625,0.13671875,416627890,94
2.779296875,0.28515625,0.138671875,416627890,94
2.828125,0.375,0.15234375,416627890,94
0.0,-2.841796875,0.154296875,416627890,94
0.0,12412.212890625,2.5,416627890,94
-50.0,33.48828125,3.0,416627890,94
-16.990234375,34.0,3.0,416627890,94
8.509765625,34.501953125,3.0,416627890,94
-8.490234375,35.0,3.0,416627890,94
-19.490234375,35.5,3.0,416627890,94
-1.490234375,39.5,3.0,416627890,94
-43.5,35.48828125,-2.5,416627890,94
47.509765625,35.998046875,-2.5,416627890,94
-54.990234375,34.998046875,-2.0,416627890,94
56.009765625,35.498046875,-2.0,416627890,94
28.009765625,35.998046875,-2.0,416627890,94
-0.490234375,36.498046875,-2.0,416627890,94
20.509765625,36.5,-2.0,416627890,94
19.009765625,34.5,-1.5,416627890,94
-17.490234375,35.498046875,-1.5,416627890,94
54.009765625,35.998046875,-1.5,416627890,94
-12.990234375,36.0,-1.5,416627890,94
-56.990234375,36.5,-1.5,416627890,94
-56.490234375,34.5,-1.0,416627890,94
42.509765625,35.0,-1.0,416627890,94
33.509765625,35.5,-1.0,416627890,94
26.009765625,36.0,-1.0,416627890,94
-59.490234375,36.5,-1.0,416627890,94
-31.490234375,35.0,-0.5,416627890,94
-38.990234375,35.5,-0.5,416627890,94
-44.990234375,36.0,-0.5,416627890,94
-41.990234375,36.5,-0.5,416627890,94
-23.990234375,34.5,2.0,416627890,94
49.505859375,6.4921875,0.0,416627890,94
-1.05859375,2.54296875,0.615234375,516615785,96
-1.1640625,2.615234375,0.072265625,516615785,96
-1.08984375,2.556640625,-0.845703125,516615785,96
0.3671875,2.623046875,-1.287109375,516615785,96
-1.05859375,2.615234375,0.087890625,516615785,96
-1.07421875,2.654296875,-0.001953125,516615785,96
-1.08984375,2.69140625,-0.017578125,516615785,96
-1.197265625,2.69140625,0.04296875,516615785,96
-1.306640625,2.646484375,0.451171875,516615785,96
-1.05859375,2.6171875,0.005859375,516615785,96
-1.07421875,2.654296875,0.00390625,516615785,96
-1.08984375,2.69140625,0.021484375,516615785,96
-1.197265625,2.689453125,0.119140625,516615785,96
-1.05859375,2.6171875,0.00390625,516615785,96
-1.07421875,2.654296875,0.017578125,516615785,96
-1.08984375,2.69140625,0.0625,516615785,96
-1.2890625,2.615234375,0.412109375,516615785,96
59.5,-13.990234375,35.49609375,516615785,96
62.501953125,-30.490234375,35.99609375,516615785,96
-16.005859375,14.5078125,36.00390625,516615785,96
40.494140625,-32.990234375,36.99609375,516615785,96
51.994140625,30.009765625,34.498046875,516615785,96
49.001953125,6.509765625,34.998046875,516615785,96
-64.0,11.509765625,35.498046875,516615785,96
-59.0,-19.990234375,35.99609375,516615785,96
0.005859375,44.0,36.009765625,516615785,96
-39.498046875,4.009765625,36.501953125,516615785,96
-28.0,22.509765625,34.001953125,516615785,96
60.5,-62.990234375,34.998046875,516615785,96
-61.5,28.509765625,35.498046875,516615785,96
-47.0,30.509765625,35.998046875,516615785,96
63.501953125,48.509765625,36.001953125,516615785,96
-36.0,9.509765625,36.501953125,516615785,96
-30.0,32.509765625,0.330078125,516615785,96
2.7734375,-0.2890625,0.13671875,516615785,96
2.837890625,-0.125,0.138671875,516615785,96
2.81640625,0.45703125,0.140625,516615785,96
2.85546875,0.560546875,0.134765625,516615785,96
2.708984375,0.013671875,0.13671875,516615785,96
2.74609375,0.103515625,0.140625,516615785,96
2.75,0.287109375,0.1328125,516615785,96
2.638671875,0.150390625,0.134765625,516615785,96
2.703125,0.162109375,0.13671875,516615785,96
2.708984375,0.2421875,0.140625,516615785,96
-30.990234375,36.5,-2.0,516615785,96
1.509765625,37.001953125,-2.0,516615785,96
26.509765625,34.001953125,-1.5,516615785,96
11.509765625,34.5,-1.5,516615785,96
47.509765625,35.0,-1.5,516615785,96
63.009765625,35.5,-1.5,516615785,96
-34.490234375,36.0,-1.5,516615785,96
24.509765625,36.501953125,-1.5,516615785,96
46.009765625,34.001953125,-1.0,516615785,96
24.009765625,34.5,-1.0,516615785,96
49.009765625,35.0,-1.0,516615785,96
61.009765625,35.5,-1.0,516615785,96
-60.990234375,34.0,-0.5,516615785,96
-45.990234375,34.5,-0.5,516615785,96
-19.990234375,35.0,-0.5,516615785,96
-4.490234375,35.5,-0.5,516615785,96
34.009765625,36.001953125,0.0,516615785,96
-61.990234375,35.494140625,2.0,516615785,96
59.009765625,35.501953125,2.0,516615785,96
23.009765625,6.49609375,0.0,516615785,96
-0.857421875,2.583984375,0.318359375,616263798,98
-0.869140625,2.6171875,0.365234375,616263798,98
-1.05859375,2.609375,0.1875,616263798,98
0.537109375,2.8125,0.033203125,616263798,98
0.544921875,2.8515625,0.05859375,616263798,98
0.4609375,2.89453125,0.291015625,616263798,98
-21.033203125,-15.490234375,33.5,616263798,98
14.49609375,-47.490234375,34.0,616263798,98
24.99609375,-51.490234375,34.5,616263798,98
39.49609375,-28.990234375,35.0,616263798,98
-59.5,-20.490234375,35.99609375,616263798,98
27.994140625,-1.990234375,36.0,616263798,98
45.994140625,-59.990234375,34.0,616263798,98
19.49609375,-13.990234375,34.5,616263798,98
58.0,-34.990234375,35.49609375,616263798,98
-51.5,25.009765625,35.998046875,616263798,98
-32.0,-45.990234375,36.498046875,616263798,98
-17.5,9.009765625,35.0,616263798,98
-44.5,51.509765625,35.998046875,616263798,98
-29.5,-48.490234375,36.498046875,616263798,98
-21.5,-50.490234375,36.998046875,616263798,98
-15.5,63.509765625,37.0,616263798,98
-10.0,-19.990234375,36.5,616263798,98
-17.5,-17.990234375,37.0,616263798,98
-13.0,16.509765625,37.501953125,616263798,98
-8.0,45.009765625,38.001953125,616263798,98
10.0,6.51171875,38.501953125,616263798,98
23.0,10.51171875,35.001953125,616263798,98
-56.498046875,17.009765625,35.998046875,616263798,98
-39.0,39.009765625,36.498046875,616263798,98
-27.0,54.009765625,33.998046875,616263798,98
26.49609375,-23.490234375,34.498046875,616263798,98
35.99609375,-33.490234375,34.998046875,616263798,98
36.99609375,-49.990234375,49.94140625,616263798,98
2.8125,-0.078125,0.138671875,616263798,98
2.865234375,-0.138671875,0.140625,616263798,98
2.908203125,-0.099609375,0.130859375,616263798,98
2.603515625,0.056640625,0.1328125,616263798,98
2.642578125,0.03125,0.134765625,616263798,98
2.6484375,-0.08984375,0.13671875,616263798,98
2.814453125,0.279296875,0.138671875,616263798,98
2.86328125,0.1640625,0.140625,616263798,98
2.90234375,0.189453125,0.134765625,616263798,98
2.74609375,0.384765625,0.13671875,616263798,98
46.509765625,35.5,0.0,616263798,98
59.509765625,36.498046875,0.0,616263798,98
-16.4921875,36.9921875,0.0,616263798,98
56.5078125,34.994140625,0.5,616263798,98
-0.490234375,35.494140625,0.5,616263798,98
-51.4921875,35.501953125,0.5,616263798,98
34.509765625,36.498046875,0.5,616263798,98
-13.490234375,34.998046875,1.0,616263798,98
20.009765625,35.501953125,1.0,616263798,98
50.5078125,36.00390625,1.0,616263798,98
-28.4921875,34.50390625,-1.0,616263798,98
0.36328125,0.134765625,-0.001953125,616263798,98
0.490234375,0.0234375,1.0,616263798,98
-1.04296875,2.56640625,-0.2578125,766615783,101
-0.970703125,2.650390625,0.005859375,766615783,101
-0.984375,2.685546875,0.1171875,766615783,101
-0.998046875,2.720703125,0.177734375,766615783,101
-1.103515625,2.720703125,0.224609375,766615783,101
-1.212890625,2.71484375,0.2734375,766615783,101
12541.95703125,26.009765625,34.5,766615783,101
37.49609375,46.509765625,35.0,766615783,101
45.99609375,62.509765625,35.5,766615783,101
45.494140625,-51.490234375,36.0,766615783,101
52.994140625,-34.990234375,36.5,766615783,101
50.494140625,-18.490234375,37.0,766615783,101
59.494140625,-13.490234375,34.5,766615783,101
33.99609375,-45.990234375,35.0,766615783,101
33.994140625,-37.490234375,35.5,766615783,101
40.494140625,-14.490234375,36.0,766615783,101
45.994140625,8.009765625,36.501953125,766615783,101
53.494140625,21.009765625,37.001953125,766615783,101
52.494140625,22.009765625,35.001953125,766615783,101
40.49609375,-19.490234375,35.5,766615783,101
46.99609375,0.509765625,35.001953125,766615783,101
36.49609375,2.509765625,32.501953125,766615783,101
46.5,38.5,33.009765625,766615783,101
60.0,-24.998046875,33.98828125,766615783,101
-31.0,-23.998046875,34.48828125,766615783,101
-50.0,11.00390625,32.990234375,766615783,101
11.0,14.00390625,33.490234375,766615783,101
22.5,8.00390625,33.990234375,766615783,101
47.0,7.50390625,34.490234375,766615783,101
-53.0,9.50390625,34.990234375,766615783,101
47.0,62.005859375,35.490234375,766615783,101
45.5,48.005859375,35.990234375,766615783,101
5.5,8.505859375,32.990234375,766615783,101
29.5,61.509765625,0.12890625,766615783,101
2.642578125,0.4375,0.130859375,766615783,101
2.5859375,0.869140625,0.134765625,766615783,101
2.751953125,0.330078125,0.13671875,766615783,101
2.796875,0.41796875,0.138671875,766615783,101
2.849609375,0.330078125,0.140625,766615783,101
2.916015625,0.203125,0.125,766615783,101
2.580078125,0.1640625,0.126953125,766615783,101
2.62109375,0.15625,0.12890625,766615783,101
2.666015625,0.0859375,0.130859375,766615783,101
2.677734375,-0.26953125,0.1328125,766615783,101
49.009765625,34.998046875,-3.5,766615783,101
-46.990234375,32.498046875,-3.0,766615783,101
-56.990234375,32.5,-3.0,766615783,101
-49.490234375,33.0,-3.0,766615783,101
58.509765625,33.5,-3.0,766615783,101
-34.990234375,34.498046875,-3.0,766615783,101
-32.490234375,34.998046875,-3.0,766615783,101
-33.990234375,34.498046875,-2.5,766615783,101
-15.490234375,36.998046875,-1.5,766615783,101
-0.490234375,35.49609375,-1.0,766615783,101
-38.990234375,36.498046875,-1.0,766615783,101
-0.4296875,0.142578125,-0.00390625,766615783,101
-0.294921875,0.14453125,-0.00390625,766615783,101
-0.2265625,0.13671875,-0.001953125,766615783,101
0.037109375,0.140625,-0.001953125,766615783,101
-0.017578125,0.142578125,-0.001953125,766615783,101
-0.01953125,0.1328125,0.0,766615783,101
1.279296875,0.13671875,0.00390625,766615783,101
0.408203125,0.126953125,0.01171875,766615783,101
0.19921875,0.0234375,0.0,766615783,101
0.40234375,2.544921875,0.060546875,865695672,103
0.490234375,2.572265625,0.025390625,865695672,103
0.416015625,2.625,0.07421875,865695672,103
0.337890625,2.677734375,0.056640625,865695672,103
0.40234375,2.53515625,0.224609375,865695672,103
0.408203125,2.57421875,0.234375,865695672,103
29.416015625,-62.990234375,33.0,865695672,103
42.0,-56.990234375,31.5,865695672,103
0.5,-27.990234375,32.0,865695672,103
14.0,-24.490234375,32.5,865695672,103
23.5,-20.990234375,33.0,865695672,103
39.5,-18.990234375,34.5,865695672,103
59.501953125,-6.490234375,34.0,865695672,103
29.001953125,59.009765625,34.501953125,865695672,103
18.001953125,-17.490234375,6.001953125,865695672,103
-0.970703125,2.650390625,-0.013671875,1016550103,106
-1.07421875,2.6484375,-0.1796875,1016550103,106
-1.2890625,2.58984375,0.556640625,1016550103,106
-1.212890625,2.70703125,0.345703125,1016550103,106
0.34765625,2.701171875,-0.564453125,1016550103,106
0.44140625,2.697265625,-0.70703125,1016550103,106
126626.8359375,-52.9921875,35.501953125,1016550103,106
24.994140625,13.509765625,36.001953125,1016550103,106
41.494140625,-22.490234375,34.0,1016550103,106
53.0,7.009765625,34.998046875,1016550103,106
60.501953125,14.509765625,35.498046875,1016550103,106
-48.0,51.009765625,33.498046875,1016550103,106
-15.005859375,-35.4921875,33.5,1016550103,106
-0.005859375,46.0078125,33.5,1016550103,106
-1.505859375,62.5078125,34.0,1016550103,106
47.001953125,-3.490234375,34.99609375,1016550103,106
61.501953125,20.009765625,35.498046875,1016550103,106
-56.998046875,50.509765625,35.998046875,1016550103,106
-37.998046875,-13.490234375,33.498046875,1016550103,106
-9.005859375,-12.9921875,33.5,1016550103,106
-11.505859375,0.5078125,34.001953125,1016550103,106
59.001953125,-17.990234375,34.998046875,1016550103,106
-58.498046875,-16.490234375,35.498046875,1016550103,106
-47.998046875,-4.490234375,33.998046875,1016550103,106
53.0,-8.990234375,34.498046875,1016550103,106
62.0,-40.990234375,34.998046875,1016550103,106
-58.498046875,-14.990234375,35.498046875,1016550103,106
-44.0,-13.490234375,49.943359375,1016550103,106
2.83984375,0.265625,0.140625,1016550103,106
2.87890625,0.28125,0.142578125,1016550103,106
2.912109375,0.34765625,0.185546875,1016550103,106
3.001953125,0.873046875,0.130859375,1016550103,106
2.69140625,0.283203125,0.1328125,1016550103,106
2.74609375,34.609375,3.5,1016550103,106
-5.490234375,35.498046875,3.5,1016550103,106
6.509765625,35.5,3.5,1016550103,106
-10.490234375,36.0,3.5,1016550103,106
-9.990234375,36.5,3.5,1016550103,106
1.509765625,37.001953125,3.5,1016550103,106
4.509765625,40.001953125,3.5,1016550103,106
29.0,34.98828125,-4.0,1016550103,106
-21.498046875,35.98828125,-4.0,1016550103,106
51.505859375,36.490234375,-4.0,1016550103,106
42.505859375,36.990234375,-4.0,1016550103,106
-2.341796875,0.134765625,-0.013671875,1016550103,106
-2.498046875,0.13671875,-0.013671875,1016550103,106
-2.5,0.140625,-0.005859375,1016550103,106
-0.013671875,0.134765625,-0.00390625,1016550103,106
-0.146484375,0.13671875,-0.00390625,1016550103,106
-0.203125,0.138671875,-0.00390625,1016550103,106
0.41015625,0.140625,-0.00390625,1016550103,106
0.359375,0.14453125,-0.00390625,1016550103,106
0.47265625,0.134765625,-0.001953125,1016550103,106
0.001953125,0.13671875,-0.001953125,1016550103,106
-0.076171875,0.138671875,-0.001953125,1016550103,106
-0.1875,0.140625,-0.001953125,1016550103,106
0.33203125,0.142578125,-0.001953125,1016550103,106
0.02734375,0.134765625,0.0,1016550103,106
-1.189453125,0.13671875,0.0,1016550103,106
-1.5703125,0.134765625,0.001953125,1016550103,106
0.68359375,0.13671875,0.001953125,1016550103,106
-0.65625,0.138671875,0.001953125,1016550103,106
-0.544921875,0.13671875,0.00390625,1016550103,106
-0.658203125,0.0234375,0.0,1016550103,106
-1.04296875,2.578125,0.064453125,1216666148,110
-1.05859375,2.6171875,-0.021484375,1216666148,110
-1.07421875,2.65234375,-0.09765625,1216666148,110
-1.1796875,2.6484375,-0.177734375,1216666148,110
-1.146484375,2.576171875,-0.1015625,1216666148,110
-1.1640625,2.615234375,-0.04296875,1216666148,110
12678.728515625,-3.490234375,36.998046875,1216666148,110
36.494140625,-1.990234375,37.0,1216666148,110
46.494140625,-5.990234375,37.5,1216666148,110
56.494140625,-8.990234375,36.5,1216666148,110
34.994140625,5.509765625,37.001953125,1216666148,110
44.994140625,1.509765625,37.501953125,1216666148,110
53.994140625,6.509765625,32.501953125,1216666148,110
-56.5,-10.498046875,33.48828125,1216666148,110
-31.5,-13.498046875,33.98828125,1216666148,110
-9.5,-16.498046875,32.48828125,1216666148,110
27.5,33.00390625,32.990234375,1216666148,110
37.0,26.00390625,33.490234375,1216666148,110
50.0,20.50390625,33.990234375,1216666148,110
-59.0,18.50390625,32.990234375,1216666148,110
-43.0,51.50390625,33.490234375,1216666148,110
-34.5,44.00390625,33.990234375,1216666148,110
-16.5,42.50390625,34.990234375,1216666148,110
41.0,-16.99609375,35.48828125,1216666148,110
30.0,-33.49609375,35.98828125,1216666148,110
43.5,-38.99609375,32.48828125,1216666148,110
26.0,-10.998046875,32.98828125,1216666148,110
34.5,26.00390625,33.490234375,1216666148,110
-15.5,-58.99609375,33.5078125,1216666148,110
9.0,-62.494140625,34.0078125,1216666148,110
11.0,-47.994140625,34.5078125,1216666148,110
-33.0,10.00390625,35.490234375,1216666148,110
-46.0,-8.99609375,35.98828125,1216666148,110
-41.5,-17.99609375,48.953125,1216666148,110
2.55078125,0.326171875,0.126953125,1216666148,110
2.59375,0.03125,0.12890625,1216666148,110
2.58984375,-0.482421875,0.130859375,1216666148,110
2.666015625,-0.37109375,0.1328125,1216666148,110
2.732421875,-0.283203125,0.134765625,1216666148,110
2.732421875,0.470703125,0.13671875,1216666148,110
2.767578125,0.498046875,0.126953125,1216666148,110
2.560546875,-0.513671875,0.12890625,1216666148,110
2.6328125,-0.310546875,0.130859375,1216666148,110
2.681640625,-0.23046875,0.1328125,1216666148,110
-39.990234375,33.498046875,-3.0,1216666148,110
-53.990234375,33.998046875,-3.0,1216666148,110
-25.490234375,33.498046875,-2.5,1216666148,110
-4.490234375,33.998046875,-2.5,1216666148,110
15.509765625,35.0,-2.5,1216666148,110
-58.990234375,35.5,-2.5,1216666148,110
-46.990234375,34.5,-2.0,1216666148,110
39.009765625,35.0,-2.0,1216666148,110
-4.490234375,35.5,-2.0,1216666148,110
-57.490234375,34.501953125,-1.5,1216666148,110
-21.490234375,35.998046875,-1.5,1216666148,110
0.345703125,0.140625,-0.005859375,1216666148,110
0.376953125,0.130859375,-0.00390625,1216666148,110
-0.130859375,0.1328125,-0.00390625,1216666148,110
-0.294921875,0.134765625,-0.00390625,1216666148,110
-0.330078125,0.13671875,-0.00390625,1216666148,110
-0.169921875,0.138671875,-0.00390625,1216666148,110
-0.111328125,0.140625,-0.00390625,1216666148,110
-0.025390625,0.130859375,-0.001953125,1216666148,110
0.08203125,0.0234375,0.0,1216666148,110
0.5546875,2.453125,0.330078125,1316428856,112
0.482421875,2.5078125,0.337890625,1316428856,112
0.490234375,2.5703125,0.06640625,1316428856,112
0.498046875,2.609375,-0.09765625,1316428856,112
0.505859375,2.65234375,0.01171875,1316428856,112
-1.05859375,2.61328125,-0.11328125,1316428856,112
12689.92578125,14.509765625,35.5,1316428856,112
48.994140625,32.509765625,34.0,1316428856,112
26.99609375,-53.990234375,34.998046875,1316428856,112
38.99609375,-16.990234375,35.498046875,1316428856,112
48.49609375,16.009765625,35.5,1316428856,112
57.49609375,41.009765625,36.0,1316428856,112
57.994140625,48.009765625,36.5,1316428856,112
-62.505859375,-56.490234375,34.0,1316428856,112
28.99609375,-10.990234375,34.998046875,1316428856,112
38.49609375,31.509765625,35.0,1316428856,112
46.49609375,59.509765625,35.5,1316428856,112
2.673828125,0.310546875,0.140625,1316428856,112
2.703125,0.38671875,0.142578125,1316428856,112
2.72265625,0.501953125,0.134765625,1316428856,112
2.623046875,0.38671875,0.13671875,1316428856,112
2.654296875,0.431640625,0.138671875,1316428856,112
2.64453125,0.509765625,0.140625,1316428856,112
2.689453125,0.64453125,0.130859375,1316428856,112
2.66015625,-0.501953125,0.1328125,1316428856,112
2.697265625,-0.5234375,0.134765625,1316428856,112
2.744140625,-0.490234375,0.142578125,1316428856,112
2.669921875,37.283203125,-2.5,1316428856,112
61.509765625,33.0,-2.0,1316428856,112
22.009765625,33.5,-2.0,1316428856,112
52.509765625,34.498046875,-2.0,1316428856,112
56.509765625,34.998046875,-2.0,1316428856,112
-53.990234375,31.498046875,-1.5,1316428856,112
18.0078125,0.123046875,-0.005859375,1316428856,112
0.486328125,0.125,-0.005859375,1316428856,112
-0.80078125,0.126953125,-0.005859375,1316428856,112
-0.650390625,0.12890625,-0.005859375,1316428856,112
-0.31640625,0.130859375,-0.005859375,1316428856,112
0.322265625,0.1328125,-0.005859375,1316428856,112
0.22265625,0.119140625,-0.00390625,1316428856,112
0.03125,0.12109375,-0.00390625,1316428856,112
0.109375,0.123046875,-0.00390625,1316428856,112
0.359375,0.125,-0.00390625,1316428856,112
-0.505859375,0.126953125,-0.00390625,1316428856,112
33.498046875,-1.0,33.498046875,1316428856,112
30.998046875,-0.5,14.498046875,1316428856,112
31.0,-0.5,37.498046875,1316428856,112
31.5,-0.5,33.498046875,1316428856,112
32.0,-0.5,23.498046875,1316428856,112
32.998046875,-0.5,40.498046875,1316428856,112
33.498046875,-0.5,29.498046875,1316428856,112
4.984375,1.5078125,2.51171875,1316428856,112
0.544921875,2.43359375,-0.0625,1415784589,114
0.5546875,2.474609375,-0.03125,1415784589,114
0.564453125,2.515625,-0.009765625,1415784589,114
0.490234375,2.572265625,-0.001953125,1415784589,114
0.46875,2.44921875,0.099609375,1415784589,114
0.5546875,2.470703125,0.126953125,1415784589,114
7.564453125,39.009765625,33.5,1415784589,114
36.501953125,-22.490234375,31.0,1415784589,114
-2.5,-2.9921875,31.998046875,1415784589,114
7.5,27.009765625,32.0,1415784589,114
16.0,57.009765625,30.5,1415784589,114
-18.5,-40.4921875,31.0,1415784589,114
-7.0,-48.9921875,31.5,1415784589,114
2.5,-45.490234375,32.0,1415784589,114
11.5,-32.490234375,31.0,1415784589,114
-13.5,-7.4921875,31.5,1415784589,114
1.0,-10.990234375,32.0,1415784589,114
12.0,-11.990234375,32.0,1415784589,114
8.501953125,-24.990234375,32.998046875,1415784589,114
22.001953125,-55.990234375,33.998046875,1415784589,114
0.994140625,-14.490234375,6.0,1415784589,114
0.58203125,2.5546875,-0.453125,1516511459,116
0.58984375,2.6171875,-0.302734375,1516511459,116
-1.02734375,2.5390625,0.087890625,1516511459,116
-1.04296875,2.572265625,0.173828125,1516511459,116
-1.05859375,2.60546875,0.248046875,1516511459,116
-0.984375,2.6640625,0.37109375,1516511459,116
-1.08984375,2.658203125,0.427734375,1516511459,116
-1.103515625,2.693359375,0.453125,1516511459,116
0.572265625,2.5078125,-0.482421875,1516511459,116
0.6640625,2.537109375,-0.4375,1516511459,116
0.58984375,2.62109375,-0.26171875,1516511459,116
0.564453125,2.515625,-0.013671875,1516511459,116
0.654296875,2.52734375,-0.19140625,1516511459,116
0.58203125,2.580078125,-0.265625,1516511459,116
0.58984375,2.623046875,-0.236328125,1516511459,116
0.474609375,2.490234375,0.072265625,1516511459,116
0.564453125,2.51171875,0.111328125,1516511459,116
0.572265625,2.5546875,0.041015625,1516511459,116
0.498046875,2.611328125,-0.0234375,1516511459,116
0.505859375,2.65234375,-0.013671875,1516511459,116
0.474609375,2.482421875,0.216796875,1516511459,116
0.482421875,2.5234375,0.1953125,1516511459,116
0.408203125,2.580078125,0.17578125,1516511459,116
0.416015625,2.623046875,0.111328125,1516511459,116
0.421875,2.6640625,0.1328125,1516511459,116
0.513671875,2.68359375,0.20703125,1516511459,116
0.40234375,2.529296875,0.28515625,1516511459,116
0.408203125,2.572265625,0.263671875,1516511459,116
0.33203125,2.626953125,0.244140625,1516511459,116
0.513671875,2.630859375,0.568359375,1516511459,116
0.521484375,2.705078125,0.380859375,1516511459,116
0.599609375,2.671875,0.103515625,1516511459,116
0.521484375,2.728515625,0.1328125,1516511459,116
0.58984375,2.615234375,33.826171875,1516511459,116
42.001953125,-26.990234375,34.0,1516511459,116
51.001953125,-18.490234375,34.5,1516511459,116
61.501953125,-21.490234375,33.0,1516511459,116
31.501953125,58.00390625,33.990234375,1516511459,116
-58.498046875,58.50390625,34.490234375,1516511459,116
-56.498046875,48.50390625,34.990234375,1516511459,116
-57.498046875,28.50390625,33.990234375,1516511459,116
31.001953125,47.00390625,34.490234375,1516511459,116
-53.998046875,49.50390625,34.490234375,1516511459,116
19.494140625,-37.490234375,34.998046875,1516511459,116
51.529296875,-0.0625,0.13671875,1516511459,116
2.689453125,0.044921875,0.138671875,1516511459,116
2.7265625,0.0859375,0.140625,1516511459,116
2.728515625,0.08984375,0.142578125,1516511459,116
2.76171875,0.185546875,0.130859375,1516511459,116
2.5390625,0.083984375,0.1328125,1516511459,116
2.578125,0.017578125,0.134765625,1516511459,116
2.615234375,0.09765625,0.13671875,1516511459,116
2.646484375,0.197265625,0.138671875,1516511459,116
2.71484375,0.26171875,0.140625,1516511459,116
2.75,0.294921875,0.142578125,1516511459,116
-18.490234375,33.0,0.0,1516511459,116
57.50390625,33.990234375,0.0,1516511459,116
44.509765625,33.498046875,-4.0,1516511459,116
-21.990234375,33.5,-4.0,1516511459,116
-14.490234375,34.0,-4.0,1516511459,116
-4.990234375,34.5,-4.0,1516511459,116
-7.990234375,33.5,-3.5,1516511459,116
-33.490234375,34.0,-3.5,1516511459,116
-24.990234375,6.0,0.0,1516511459,116
0.44140625,2.763671875,0.359375,1766063634,121
0.447265625,2.810546875,0.3203125,1766063634,121
-0.998046875,2.7265625,-0.072265625,1766063634,121
-1.01171875,2.751953125,0.265625,1766063634,121
-1.04296875,2.576171875,0.095703125,1766063634,121
-1.05859375,2.615234375,-0.0625,1766063634,121
12678.3359375,-49.490234375,35.998046875,1766063634,121
37.994140625,-53.490234375,34.998046875,1766063634,121
29.994140625,12.009765625,35.0,1766063634,121
39.494140625,-27.490234375,35.998046875,1766063634,121
37.494140625,-56.490234375,34.498046875,1766063634,121
52.0,2.009765625,34.998046875,1766063634,121
60.5,-9.990234375,35.49609375,1766063634,121
-62.5,-34.990234375,34.49609375,1766063634,121
52.001953125,24.509765625,34.998046875,1766063634,121
-61.998046875,54.509765625,35.498046875,1766063634,121
-49.498046875,-49.990234375,35.998046875,1766063634,121
-38.998046875,-44.990234375,36.498046875,1766063634,121
-28.0,-2.490234375,36.5,1766063634,121
-20.0,-23.490234375,33.5,1766063634,121
50.0,63.009765625,34.0,1766063634,121
58.501953125,41.009765625,34.5,1766063634,121
-58.498046875,-9.990234375,35.498046875,1766063634,121
-47.998046875,0.509765625,35.5,1766063634,121
-37.998046875,18.009765625,36.0,1766063634,121
41.994140625,-28.490234375,33.99609375,1766063634,121
51.0,-44.990234375,34.0,1766063634,121
61.5,49.509765625,0.134765625,1766063634,121
2.771484375,0.068359375,0.13671875,1766063634,121
2.82421875,0.154296875,0.138671875,1766063634,121
2.861328125,0.193359375,0.140625,1766063634,121
2.765625,-0.001953125,0.142578125,1766063634,121
2.798828125,0.18359375,0.134765625,1766063634,121
2.033203125,12507.412109375,0.0,1766063634,121
9.0078125,36.49609375,-1.0,1766063634,121
-59.990234375,0.50390625,1.5078125,1766063634,121
-1.04296875,2.57421875,0.150390625,1866640874,123
-1.05859375,2.611328125,0.15234375,1866640874,123
-1.07421875,2.654296875,-0.02734375,1866640874,123
-1.07421875,2.625,0.388671875,1866640874,123
-1.1796875,2.63671875,0.302734375,1866640874,123
-1.197265625,2.68359375,0.19140625,1866640874,123
12528.8359375,47.009765625,35.501953125,1866640874,123
23.494140625,21.009765625,37.001953125,1866640874,123
55.494140625,52.509765625,37.5,1866640874,123
51.994140625,58.509765625,33.0,1866640874,123
61.0,26.00390625,33.990234375,1866640874,123
-51.0,22.50390625,34.490234375,1866640874,123
-29.001953125,23.00390625,33.490234375,1866640874,123
9.5,2.00390625,33.990234375,1866640874,123
54.5,11.00390625,34.490234375,1866640874,123
-38.5,17.50390625,34.990234375,1866640874,123
-44.0,3.00390625,35.490234375,1866640874,123
34.5,-32.49609375,32.98828125,1866640874,123
31.5,31.509765625,33.0,1866640874,123
41.5,39.509765625,33.5,1866640874,123
50.0,-62.990234375,34.0,1866640874,123
50.0,7.009765625,34.501953125,1866640874,123
56.501953125,8.509765625,35.001953125,1866640874,123
-55.0,-1.990234375,39.0,1866640874,123
0.0078125,-40.5,39.986328125,1866640874,123
0.0078125,-50.0,32.009765625,1866640874,123
16.0,53.509765625,32.5,1866640874,123
27.5,-47.490234375,33.0,1866640874,123
45.0,32.509765625,33.5,1866640874,123
46.001953125,59.509765625,34.498046875,1866640874,123
58.501953125,-37.490234375,39.998046875,1866640874,123
0.0078125,50.5,40.01171875,1866640874,123
0.0078125,-64.0,33.009765625,1866640874,123
39.001953125,-3.990234375,49.935546875,1866640874,123
2.69140625,-0.01171875,0.1328125,1866640874,123
2.73046875,0.109375,0.134765625,1866640874,123
2.728515625,0.490234375,0.13671875,1866640874,123
2.75390625,0.568359375,0.154296875,1866640874,123
0.0,-3.091796875,0.15625,1866640874,123
0.0,-3.12109375,0.16015625,1866640874,123
0.0,-3.283203125,0.162109375,1866640874,123
0.0,-3.205078125,0.12890625,1866640874,123
2.640625,-0.248046875,0.130859375,1866640874,123
2.689453125,-0.103515625,0.1328125,1866640874,123
18.009765625,33.0,-2.0,1866640874,123
-18.990234375,34.998046875,-2.0,1866640874,123
-16.490234375,35.498046875,-2.0,1866640874,123
52.509765625,34.0,-1.5,1866640874,123
10.009765625,34.5,-1.5,1866640874,123
41.509765625,35.0,-1.5,1866640874,123
-55.990234375,35.5,-1.5,1866640874,123
-29.990234375,36.0,-1.5,1866640874,123
-27.990234375,34.0,-1.0,1866640874,123
-13.490234375,34.998046875,-1.0,1866640874,123
10.009765625,35.0,-1.0,1866640874,123
54.509765625,35.5,-1.0,1866640874,123
38.009765625,36.001953125,-1.0,1866640874,123
-3.490234375,34.0,-0.5,1866640874,123
-9.990234375,34.998046875,-0.5,1866640874,123
-8.490234375,35.498046875,-0.5,1866640874,123
-30.490234375,36.498046875,-0.5,1866640874,123
19.009765625,36.501953125,-0.5,1866640874,123
41.009765625,33.001953125,3.0,1866640874,123
18.509765625,6.0,0.0,1866640874,123
0.40234375,2.521484375,0.34375,1966055150,125
0.408203125,2.564453125,0.337890625,1966055150,125
0.498046875,2.609375,0.087890625,1966055150,125
0.505859375,2.6484375,0.134765625,1966055150,125
0.513671875,2.662109375,0.40625,1966055150,125
0.521484375,2.68359375,0.513671875,1966055150,125
558.029296875,0.009765625,35.001953125,1966055150,125
39.99609375,-17.490234375,35.5,1966055150,125
55.99609375,-63.990234375,34.5,1966055150,125
41.49609375,-40.990234375,35.0,1966055150,125
51.49609375,-43.490234375,35.5,1966055150,125
60.99609375,-38.990234375,36.0,1966055150,125
60.494140625,-21.490234375,34.5,1966055150,125
25.49609375,7.509765625,35.001953125,1966055150,125
44.49609375,2.009765625,35.501953125,1966055150,125
46.49609375,1.509765625,36.001953125,1966055150,125
55.994140625,4.009765625,33.501953125,1966055150,125
52.5,19.009765625,34.0,1966055150,125
62.0,-40.490234375,31.998046875,1966055150,125
7.5,31.009765625,32.0,1966055150,125
16.5,49.509765625,32.5,1966055150,125
30.5,52.509765625,33.0,1966055150,125
39.001953125,12.509765625,33.5,1966055150,125
49.001953125,12.009765625,34.0,1966055150,125
54.501953125,13.509765625,34.5,1966055150,125
-58.498046875,4.509765625,31.5,1966055150,125
4.0,-57.990234375,32.0,1966055150,125
16.0,-38.990234375,32.5,1966055150,125
27.0,44.509765625,33.0,1966055150,125
39.001953125,11.009765625,33.5,1966055150,125
42.001953125,57.509765625,34.0,1966055150,125
51.001953125,-53.490234375,34.5,1966055150,125
61.501953125,-57.490234375,34.5,1966055150,125
12.49609375,60.009765625,0.33203125,1966055150,125
2.783203125,0.5078125,0.138671875,1966055150,125
2.85546875,1.45703125,2.001953125,1966055150,125
-0.970703125,2.638671875,0.25390625,2116386462,128
-0.984375,2.6796875,0.21875,2116386462,128
-0.998046875,2.716796875,0.244140625,2116386462,128
-1.103515625,2.7109375,0.318359375,2116386462,128
-1.05859375,2.5625,0.525390625,2116386462,128
-0.984375,2.654296875,0.435546875,2116386462,128
12691.41015625,-21.990234375,36.0,2116386462,128
46.994140625,3.509765625,34.501953125,2116386462,128
2.494140625,62.509765625,35.001953125,2116386462,128
29.49609375,33.509765625,35.501953125,2116386462,128
37.99609375,40.009765625,36.001953125,2116386462,128
30.994140625,-57.490234375,33.001953125,2116386462,128
31.001953125,24.509765625,33.998046875,2116386462,128
41.001953125,20.509765625,34.498046875,2116386462,128
50.001953125,14.009765625,33.498046875,2116386462,128
37.501953125,-41.990234375,33.998046875,2116386462,128
47.501953125,-45.990234375,34.498046875,2116386462,128
2.7421875,-0.16796875,0.12890625,2116386462,128
1.14453125,2.2265625,0.130859375,2116386462,128
0.0,2.646484375,0.1328125,2116386462,128
0.0,-2.6796875,0.134765625,2116386462,128
0.0,2.810546875,0.13671875,2116386462,128
0.0,-2.767578125,0.138671875,2116386462,128
0.0,-2.83203125,0.15234375,2116386462,128
2.080078125,2.04296875,0.126953125,2116386462,128
0.0,-2.634765625,0.12890625,2116386462,128
0.0,2.591796875,0.130859375,2116386462,128
0.0,284.1328125,-3.5,2116386462,128
58.0,34.509765625,-3.5,2116386462,128
-33.5,35.48828125,-3.5,2116386462,128
-21.998046875,35.98828125,-3.5,2116386462,128
-58.0,39.48828125,-3.5,2116386462,128
3.0078125,39.5078125,-3.5,2116386462,128
-42.994140625,0.939453125,-0.013671875,2116386462,128
2.501953125,0.16015625,-0.013671875,2116386462,128
2.2109375,0.126953125,-0.01171875,2116386462,128
-2.373046875,0.12890625,-0.01171875,2116386462,128
-2.3359375,0.130859375,-0.01171875,2116386462,128
-2.6875,0.1328125,-0.01171875,2116386462,128
-2.66796875,0.134765625,-0.01171875,2116386462,128
-2.453125,0.13671875,-0.01171875,2116386462,128
-2.439453125,0.15234375,-0.01171875,2116386462,128
1.775390625,0.142578125,-0.009765625,2116386462,128
-2.896484375,0.14453125,-0.009765625,2116386462,128
33.98828125,-2.0,14.498046875,2116386462,128
34.48828125,-2.0,11.498046875,2116386462,128
36.990234375,-2.0,27.498046875,2116386462,128
37.48828125,-2.0,29.498046875,2116386462,128
33.48828125,-4.0,11.998046875,2116386462,128
33.994140625,-4.0,19.998046875,2116386462,128
34.49609375,-4.0,16.498046875,2116386462,128
34.998046875,-4.0,14.498046875,2116386462,128
35.498046875,-4.0,23.998046875,2116386462,128
35.5,-4.0,24.998046875,2116386462,128
39.0,-4.0,62.498046875,2116386462,128
32.5,-3.5,11.498046875,2116386462,128
33.498046875,-3.5,20.998046875,2116386462,128
33.998046875,-3.5,30.998046875,2116386462,128
34.498046875,-3.5,26.498046875,2116386462,128
34.998046875,-3.5,27.498046875,2116386462,128
35.0,-3.5,41.498046875,2116386462,128
35.5,-3.5,41.998046875,2116386462,128
39.0,-3.5,-39.501953125,2116386462,128
6.001953125,0.0,40.0,2116386462,128
0.474609375,0.408203125,-2.45703125,2266671335,131
0.564453125,0.0,-2.5625,2266671335,131
0.490234375,0.0,2.5859375,2266671335,131
-0.984375,2.677734375,0.255859375,2266671335,131
-0.998046875,2.72265625,0.1484375,2266671335,131
-0.919921875,2.796875,0.025390625,2266671335,131
0.634765625,1.0625,-2.212890625,2266671335,131
0.64453125,1.10546875,-2.236328125,2266671335,131
0.572265625,1.2421875,-2.232421875,2266671335,131
0.498046875,1.296875,-2.267578125,2266671335,131
-0.984375,2.6484375,0.4609375,2266671335,131
-0.998046875,2.70703125,0.326171875,2266671335,131
-1.01171875,2.751953125,0.26953125,2266671335,131
-1.212890625,2.68359375,0.48828125,2266671335,131
-0.080078125,2.255859375,1.2421875,2266671335,131
0.736328125,2.455078125,-0.533203125,2266671335,131
0.25390625,1.23828125,-2.384765625,2266671335,131
33.49609375,17.509765625,35.501953125,2266671335,131
47.99609375,-5.990234375,36.0,2266671335,131
59.494140625,-14.990234375,36.5,2266671335,131
37.994140625,43.009765625,31.501953125,2266671335,131
44.5,-10.494140625,32.005859375,2266671335,131
47.5,0.005859375,33.0078125,2266671335,131
-11.0,-38.0,31.98828125,2266671335,131
39.001953125,-33.494140625,32.005859375,2266671335,131
-10.998046875,-1.5,32.5078125,2266671335,131
19.0,-12.498046875,33.98828125,2266671335,131
4.501953125,-37.994140625,31.490234375,2266671335,131
-33.998046875,52.001953125,31.990234375,2266671335,131
-33.498046875,41.501953125,32.490234375,2266671335,131
8.501953125,42.00390625,32.990234375,2266671335,131
-18.498046875,-36.49609375,33.490234375,2266671335,131
-60.998046875,25.505859375,33.9921875,2266671335,131
8.001953125,-35.494140625,49.15625,2266671335,131
1.353515625,-2.328125,0.12109375,2266671335,131
1.13671875,-2.17578125,0.123046875,2266671335,131
1.09765625,-2.240234375,0.125,2266671335,131
1.146484375,-2.26171875,0.126953125,2266671335,131
0.94140625,-2.435546875,0.12890625,2266671335,131
2.490234375,-0.47265625,0.130859375,2266671335,131
1.55078125,-2.125,0.1328125,2266671335,131
1.3046875,-2.328125,0.134765625,2266671335,131
1.248046875,-2.431640625,0.12109375,2266671335,131
0.74609375,-2.33984375,0.123046875,2266671335,131
34.501953125,32.490234375,3.5,2266671335,131
38.50390625,32.990234375,3.5,2266671335,131
-0.998046875,33.48828125,3.5,2266671335,131
36.00390625,33.990234375,3.5,2266671335,131
28.0078125,34.005859375,3.5,2266671335,131
13.50390625,34.990234375,3.5,2266671335,131
11.00390625,31.490234375,-4.0,2266671335,131
14.501953125,31.990234375,-4.0,2266671335,131
13.501953125,32.490234375,-4.0,2266671335,131
13.501953125,32.990234375,-4.0,2266671335,131
14.00390625,33.490234375,-4.0,2266671335,131
0.474609375,0.130859375,-0.015625,2266671335,131
1.533203125,0.1328125,-0.015625,2266671335,131
-2.732421875,0.12109375,-0.013671875,2266671335,131
-2.41796875,0.123046875,-0.013671875,2266671335,131
-2.447265625,0.125,-0.013671875,2266671335,131
-2.45703125,0.126953125,-0.013671875,2266671335,131
-2.4296875,0.12109375,-0.01171875,2266671335,131
-2.40234375,0.123046875,-0.01171875,2266671335,131
-2.435546875,0.0234375,0.0,2266671335,131
0.353515625,1.845703125,-0.091796875,2366239145,133
0.39453125,1.751953125,0.1328125,2366239145,133
0.40234375,1.7890625,0.158203125,2366239145,133
0.353515625,1.841796875,0.154296875,2366239145,133
0.40234375,1.78515625,0.19140625,2366239145,133
0.353515625,1.8359375,0.220703125,2366239145,133
-63.60546875,38.005859375,22.5,2366239145,133
-55.0,52.005859375,23.0,2366239145,133
-41.5,48.505859375,22.0,2366239145,133
62.0,55.505859375,22.5,2366239145,133
-53.5,-63.994140625,23.5,2366239145,133
-29.0,-20.494140625,24.498046875,2366239145,133
-22.5,63.505859375,24.5,2366239145,133
-13.5,-52.494140625,25.0,2366239145,133
-2.5,-56.994140625,25.5,2366239145,133
14.0,37.5078125,26.0,2366239145,133
26.0,9.0078125,26.5,2366239145,133
34.0,-46.4921875,27.498046875,2366239145,133
41.5,54.0078125,23.998046875,2366239145,133
-34.5,-52.494140625,24.0,2366239145,133
-29.0,-25.994140625,24.5,2366239145,133
-23.5,-4.494140625,25.0,2366239145,133
-16.0,26.005859375,25.501953125,2366239145,133
9.0,62.0078125,26.0,2366239145,133
19.5,-43.9921875,27.0,2366239145,133
33.0,20.0078125,24.498046875,2366239145,133
-36.5,15.505859375,24.501953125,2366239145,133
-22.5,12.505859375,25.501953125,2366239145,133
10.5,48.5078125,26.0,2366239145,133
22.0,-44.9921875,24.0,2366239145,133
-52.0,28.00390625,24.994140625,2366239145,133
35.501953125,-12.99609375,25.4921875,2366239145,133
62.5,31.001953125,25.9921875,2366239145,133
-6.5,24.50390625,49.515625,2366239145,133
1.0625,-1.763671875,0.095703125,2366239145,133
1.0546875,-1.62890625,0.1015625,2366239145,133
0.0,-2.08203125,0.099609375,2366239145,133
0.0,-2.0703125,0.1015625,2366239145,133
0.0,2.125,0.103515625,2366239145,133
0.0,-2.138671875,0.1015625,2366239145,133
0.0,-2.021484375,0.138671875,2366239145,133
2.751953125,0.185546875,0.09375,2366239145,133
1.84765625,0.6171875,0.095703125,2366239145,133
1.916015625,0.53125,0.09765625,2366239145,133
-33.998046875,25.9921875,-4.0,2366239145,133
-46.4921875,26.0,-4.0,2366239145,133
-26.4921875,24.5,-3.5,2366239145,133
-15.494140625,26.0,-2.0,2366239145,133
19.0078125,6.0,0.0,2366239145,133
0.337890625,0.451171875,-0.701171875,2466660538,135
0.353515625,0.537109375,-0.6875,2466660538,135
0.337890625,0.466796875,-0.794921875,2466660538,135
0.478515625,0.0,-0.9453125,2466660538,135
0.564453125,0.0,-0.91796875,2466660538,135
0.552734375,0.0,-0.98046875,2466660538,135
-3.677734375,-2.498046875,14.5,2466660538,135
35.0,-18.49609375,15.498046875,2466660538,135
29.5,41.00390625,15.998046875,2466660538,135
52.0,14.50390625,34.5,2466660538,135
