33.0,-2.5,20.498046875,485436609,54
33.501953125,-2.5,27.498046875,485436609,54
34.0,-2.5,18.998046875,485436609,54
33.5,-2.0,12.498046875,485436609,54
34.001953125,-2.0,19.498046875,485436609,54
34.5,-2.0,15.998046875,485436609,54
32.998046875,-1.5,37.998046875,485436609,54
33.0,-1.5,-41.001953125,485436609,54
33.5,-1.5,-43.001953125,485436609,54
34.0,-1.5,49.998046875,485436609,54
0.134765625,-0.005859375,0.134765625,485436609,54
0.13671875,-0.005859375,0.091796875,485436609,54
0.123046875,-0.00390625,0.056640625,485436609,54
0.125,-0.00390625,0.166015625,485436609,54
0.126953125,-0.00390625,0.279296875,485436609,54
0.12890625,-0.00390625,0.509765625,485436609,54
0.130859375,-0.00390625,0.537109375,485436609,54
0.1328125,-0.00390625,0.529296875,485436609,54
0.0234375,0.0,25.15625,485436609,54
-0.080078125,2.576171875,-0.009765625,585443524,56
0.0,2.6171875,0.005859375,585443524,56
0.083984375,2.634765625,0.349609375,585443524,56
0.16796875,2.646484375,0.505859375,585443524,56
0.0,2.724609375,0.302734375,585443524,56
0.0,2.78125,-0.06640625,585443524,56
127450.412109375,49.009765625,36.498046875,585443524,56
10.00390625,-17.990234375,36.99609375,585443524,56
4.50390625,-22.990234375,32.99609375,585443524,56
36.498046875,47.509765625,33.0,585443524,56
49.998046875,21.509765625,33.5,585443524,56
59.498046875,42.009765625,34.0,585443524,56
-60.501953125,-49.990234375,34.998046875,585443524,56
-56.49609375,29.5078125,35.49609375,585443524,56
-23.99609375,-26.4921875,35.99609375,585443524,56
12.00390625,50.509765625,36.498046875,585443524,56
19.00390625,30.009765625,36.998046875,585443524,56
2.54296875,-0.474609375,0.126953125,585443524,56
2.623046875,0.3984375,0.12890625,585443524,56
2.67578125,0.26171875,0.130859375,585443524,56
2.736328125,0.0078125,0.1328125,585443524,56
2.390625,-0.29296875,0.134765625,585443524,56
2.486328125,-0.1875,0.13671875,585443524,56
2.4765625,-0.119140625,0.140625,585443524,56
2.59375,-0.193359375,0.142578125,585443524,56
2.62109375,-0.291015625,0.12890625,585443524,56
2.677734375,0.083984375,0.130859375,585443524,56
2.71875,-0.025390625,0.1328125,585443524,56
2.755859375,-0.146484375,0.134765625,585443524,56
2.4921875,-0.02734375,0.13671875,585443524,56
2.529296875,0.029296875,0.138671875,585443524,56
2.5625,-0.142578125,0.140625,585443524,56
2.6015625,0.064453125,0.142578125,585443524,56
2.63671875,37.052734375,1.5,585443524,56
45.009765625,33.998046875,2.0,585443524,56
-14.990234375,34.498046875,2.0,585443524,56
-23.990234375,34.998046875,2.0,585443524,56
-28.990234375,35.498046875,2.0,585443524,56
11.509765625,36.0,2.0,585443524,56
-28.490234375,36.5,2.0,585443524,56
21.509765625,37.0,2.0,585443524,56
60.009765625,33.998046875,2.5,585443524,56
52.509765625,34.498046875,2.5,585443524,56
-47.990234375,34.998046875,2.5,585443524,56
40.509765625,35.498046875,2.5,585443524,56
-7.990234375,36.998046875,2.5,585443524,56
31.509765625,37.0,2.5,585443524,56
-50.990234375,37.998046875,2.5,585443524,56
14.009765625,33.998046875,3.0,585443524,56
51.509765625,34.498046875,3.0,585443524,56
55.009765625,34.998046875,3.0,585443524,56
53.009765625,35.0,3.0,585443524,56
51.009765625,37.0,3.0,585443524,56
-11.990234375,37.998046875,3.0,585443524,56
-35.490234375,38.498046875,3.0,585443524,56
-37.490234375,37.998046875,3.5,585443524,56
10.509765625,38.0,3.5,585443524,56
14.009765625,35.5,-2.0,585443524,56
-19.9921875,36.49609375,-2.0,585443524,56
-61.4921875,32.99609375,-1.5,585443524,56
61.509765625,33.49609375,-1.5,585443524,56
-27.990234375,33.99609375,-1.5,585443524,56
-10.990234375,35.99609375,-1.5,585443524,56
5.0078125,6.498046875,0.0,585443524,56
-0.1640625,2.58984375,-0.34375,685442717,58
-0.166015625,2.62890625,-0.3671875,685442717,58
-0.083984375,2.681640625,-0.296875,685442717,58
0.0,2.734375,-0.173828125,685442717,58
-0.087890625,2.775390625,-0.158203125,685442717,58
-0.087890625,2.810546875,-0.244140625,685442717,58
-59.0,-58.490234375,32.49609375,685442717,58
25.498046875,-52.990234375,32.998046875,685442717,58
37.498046875,-32.990234375,33.498046875,685442717,58
49.998046875,-26.490234375,33.998046875,685442717,58
59.498046875,-40.490234375,34.498046875,685442717,58
-57.001953125,-42.990234375,34.998046875,685442717,58
-50.501953125,49.509765625,32.498046875,685442717,58
24.998046875,53.509765625,32.998046875,685442717,58
37.498046875,60.009765625,33.498046875,685442717,58
47.998046875,58.009765625,33.998046875,685442717,58
54.498046875,33.009765625,34.498046875,685442717,58
2.763671875,-0.30078125,0.134765625,685442717,58
2.822265625,-0.052734375,0.125,685442717,58
2.609375,-0.119140625,0.126953125,685442717,58
2.650390625,-0.134765625,0.12890625,685442717,58
2.693359375,-0.1640625,0.130859375,685442717,58
2.728515625,-0.244140625,0.1328125,685442717,58
2.40234375,-1.333984375,0.125,685442717,58
2.61328125,-0.02734375,0.126953125,685442717,58
2.658203125,-0.005859375,0.12890625,685442717,58
2.697265625,-0.072265625,0.130859375,685442717,58
2.728515625,12656.240234375,2.0,685442717,58
-38.490234375,34.994140625,2.0,685442717,58
8.009765625,32.99609375,2.5,685442717,58
7.009765625,33.0,2.5,685442717,58
-21.990234375,33.998046875,2.5,685442717,58
-49.490234375,33.498046875,-4.0,685442717,58
-63.490234375,49.734375,-0.013671875,685442717,58
-0.55859375,0.126953125,-0.013671875,685442717,58
-0.60546875,0.12890625,-0.013671875,685442717,58
-0.548828125,0.130859375,-0.013671875,685442717,58
-0.4296875,0.1328125,-0.013671875,685442717,58
-0.54296875,0.12890625,-0.01171875,685442717,58
-0.251953125,0.130859375,-0.01171875,685442717,58
-0.248046875,0.1328125,-0.01171875,685442717,58
-0.333984375,0.12890625,-0.009765625,685442717,58
-0.0234375,0.130859375,-0.009765625,685442717,58
-0.205078125,0.1328125,-0.009765625,685442717,58
32.998046875,-2.0,22.998046875,685442717,58
33.0,-2.0,45.498046875,685442717,58
33.5,-2.0,62.498046875,685442717,58
34.498046875,-2.0,59.498046875,685442717,58
34.998046875,-2.0,37.998046875,685442717,58
32.998046875,-1.5,18.998046875,685442717,58
33.001953125,-1.5,25.498046875,685442717,58
33.5,-1.5,36.998046875,685442717,58
34.0,-1.5,42.998046875,685442717,58
34.5,-1.5,39.998046875,685442717,58
33.998046875,-1.0,49.919921875,685442717,58
0.1328125,-0.00390625,0.103515625,685442717,58
0.134765625,-0.00390625,0.1328125,685442717,58
0.140625,-0.00390625,0.208984375,685442717,58
0.126953125,-0.001953125,0.0546875,685442717,58
0.130859375,-0.001953125,0.111328125,685442717,58
0.1328125,-0.001953125,0.224609375,685442717,58
0.134765625,-0.001953125,0.208984375,685442717,58
0.13671875,-0.001953125,0.10546875,685442717,58
0.0234375,0.0,17.5625,685442717,58
-0.1640625,2.61328125,-0.025390625,785428131,60
-0.166015625,2.65234375,-0.107421875,785428131,60
-0.16796875,2.681640625,-0.263671875,785428131,60
-0.0859375,2.70703125,-0.416015625,785428131,60
-0.173828125,2.744140625,-0.421875,785428131,60
-0.17578125,2.78515625,-0.427734375,785428131,60
-0.08203125,2.5703125,0.4921875,785428131,60
-0.083984375,2.65625,0.056640625,785428131,60
-0.083984375,2.693359375,-0.166015625,785428131,60
-0.0859375,2.71875,-0.337890625,785428131,60
0.0,2.736328125,-0.494140625,785428131,60
0.0,2.74609375,-0.65234375,785428131,60
0.0,2.736328125,-0.841796875,785428131,60
-0.498046875,2.568359375,0.478515625,785428131,60
-0.67578125,2.576171875,-0.447265625,785428131,60
0.0,2.728515625,-0.26171875,785428131,60
-0.087890625,2.72265625,-0.55859375,785428131,60
0.0,2.76171875,-0.5859375,785428131,60
0.0,2.7734375,-0.712890625,785428131,60
-0.328125,2.515625,0.650390625,785428131,60
-0.498046875,2.5078125,0.732421875,785428131,60
0.16796875,2.5703125,-0.80859375,785428131,60
-0.0859375,2.73046875,-0.23046875,785428131,60
-0.087890625,2.765625,-0.2890625,785428131,60
-0.087890625,2.771484375,-0.5234375,785428131,60
0.0,2.814453125,-0.525390625,785428131,60
0.0,2.87890625,-0.37890625,785428131,60
-0.083984375,2.65625,-0.0546875,785428131,60
-0.083984375,2.69921875,0.0,785428131,60
-0.0859375,2.740234375,-0.005859375,785428131,60
-0.087890625,2.77734375,-0.12890625,785428131,60
0.0,2.80859375,-0.27734375,785428131,60
0.0,2.849609375,-0.283203125,785428131,60
0.0,2.892578125,12658.23046875,785428131,60
-18.0,48.009765625,32.998046875,785428131,60
30.498046875,-24.490234375,33.0,785428131,60
44.498046875,-39.490234375,33.5,785428131,60
57.498046875,-60.990234375,34.0,785428131,60
-57.501953125,34.009765625,34.5,785428131,60
-48.5,59.009765625,35.498046875,785428131,60
-36.0,-34.490234375,35.998046875,785428131,60
-25.5,-34.990234375,34.498046875,785428131,60
-58.0,55.509765625,34.5,785428131,60
-46.5,40.509765625,35.0,785428131,60
2.859375,0.13671875,0.1328125,785428131,60
2.75,0.40625,0.134765625,785428131,60
2.798828125,0.359375,0.13671875,785428131,60
2.841796875,0.357421875,0.146484375,785428131,60
0.240234375,2.93359375,0.1328125,785428131,60
2.501953125,0.009765625,0.134765625,785428131,60
2.4921875,0.046875,0.13671875,785428131,60
2.529296875,0.02734375,0.146484375,785428131,60
2.7578125,0.025390625,0.1328125,785428131,60
2.451171875,0.177734375,0.134765625,785428131,60
2.52734375,0.224609375,0.13671875,785428131,60
55.509765625,35.5,-3.5,785428131,60
-6.990234375,34.998046875,-3.0,785428131,60
22.509765625,34.5,-2.5,785428131,60
-13.4921875,35.498046875,-2.5,785428131,60
59.009765625,35.998046875,-2.5,785428131,60
17.5078125,36.498046875,-2.5,785428131,60
-37.990234375,36.998046875,-2.5,785428131,60
-18.490234375,33.998046875,-2.0,785428131,60
-43.9921875,6.498046875,0.0,785428131,60
0.17578125,2.7890625,-0.390625,885437977,62
0.08984375,2.791015625,-0.630859375,885437977,62
0.08984375,2.81640625,-0.701171875,885437977,62
1.380859375,2.599609375,0.09375,885437977,62
1.400390625,2.6328125,0.15625,885437977,62
0.087890625,2.7734375,-0.20703125,885437977,62
-52.912109375,26.509765625,35.498046875,885437977,62
-45.5,7.009765625,35.998046875,885437977,62
-32.5,22.009765625,36.498046875,885437977,62
-22.5,19.509765625,36.998046875,885437977,62
-16.5,-8.990234375,33.49609375,885437977,62
44.498046875,-29.490234375,33.5,885437977,62
58.5,-61.490234375,34.0,885437977,62
-56.5,23.509765625,34.5,885437977,62
-45.501953125,12.509765625,35.0,885437977,62
-35.0,-6.490234375,35.998046875,885437977,62
-25.0,-28.490234375,36.498046875,885437977,62
-15.5,-46.490234375,32.998046875,885437977,62
29.498046875,-4.490234375,33.0,885437977,62
45.998046875,-42.490234375,33.5,885437977,62
60.998046875,28.509765625,34.0,885437977,62
-56.001953125,18.009765625,34.5,885437977,62
-46.001953125,28.009765625,35.0,885437977,62
-35.0,15.509765625,35.5,885437977,62
-24.501953125,-21.490234375,36.498046875,885437977,62
-14.0,0.009765625,32.5,885437977,62
33.498046875,-33.490234375,33.0,885437977,62
50.998046875,16.009765625,33.5,885437977,62
60.998046875,-35.490234375,34.498046875,885437977,62
-57.001953125,-44.990234375,34.998046875,885437977,62
-45.501953125,-17.990234375,35.498046875,885437977,62
-35.001953125,-21.490234375,35.998046875,885437977,62
-26.001953125,-46.990234375,33.498046875,885437977,62
48.498046875,-48.490234375,49.935546875,885437977,62
2.728515625,-0.1953125,0.1328125,885437977,62
2.775390625,-0.158203125,0.134765625,885437977,62
2.818359375,-0.107421875,0.13671875,885437977,62
2.859375,-0.10546875,0.138671875,885437977,62
2.900390625,-0.1015625,0.12890625,885437977,62
2.689453125,-0.15234375,0.130859375,885437977,62
2.73046875,-0.17578125,0.1328125,885437977,62
2.775390625,-0.154296875,0.134765625,885437977,62
2.8125,-0.146484375,0.13671875,885437977,62
2.85546875,-0.1171875,0.12890625,885437977,62
2.693359375,-0.0703125,0.130859375,885437977,62
2.73046875,-0.15625,0.1328125,885437977,62
2.767578125,-0.2109375,0.134765625,885437977,62
2.802734375,-0.275390625,0.13671875,885437977,62
2.833984375,-0.306640625,0.138671875,885437977,62
2.880859375,-0.240234375,0.130859375,885437977,62
0.564453125,2.6796875,0.1328125,885437977,62
0.412109375,2.75,0.134765625,885437977,62
0.72265625,-2.7265625,0.13671875,885437977,62
0.80859375,-2.74609375,0.138671875,885437977,62
0.1640625,2.8984375,0.130859375,885437977,62
0.703125,2.6484375,0.1328125,885437977,62
1.01171875,2.58984375,0.134765625,885437977,62
2.634765625,-0.2890625,0.13671875,885437977,62
2.6875,-0.05859375,0.130859375,885437977,62
1.107421875,2.5078125,0.1328125,885437977,62
0.7734375,-2.671875,0.134765625,885437977,62
0.705078125,-2.732421875,0.13671875,885437977,62
0.40234375,-2.8359375,0.142578125,885437977,62
2.572265625,0.267578125,0.0234375,885437977,62
0.0,2.63671875,0.578125,984953152,64
0.0,2.732421875,0.21484375,984953152,64
-0.087890625,2.779296875,0.060546875,984953152,64
0.0,2.8203125,0.0859375,984953152,64
0.08984375,2.859375,0.130859375,984953152,64
0.08984375,2.900390625,0.13671875,984953152,64
-26.724609375,-8.990234375,34.0,984953152,64
44.998046875,-56.490234375,34.99609375,984953152,64
-37.994140625,17.0078125,35.498046875,984953152,64
-37.501953125,-49.490234375,35.998046875,984953152,64
-26.001953125,-32.990234375,36.498046875,984953152,64
-15.501953125,-27.990234375,35.498046875,984953152,64
-39.501953125,-51.490234375,36.498046875,984953152,64
24.00390625,-48.990234375,32.998046875,984953152,64
-63.49609375,-17.4921875,33.498046875,984953152,64
-54.49609375,0.0078125,36.0,984953152,64
23.50390625,-55.490234375,36.998046875,984953152,64
2.619140625,-0.314453125,0.12890625,984953152,64
2.287109375,0.05078125,0.140625,984953152,64
2.583984375,-0.3046875,0.142578125,984953152,64
2.615234375,-0.341796875,0.126953125,984953152,64
2.291015625,0.22265625,0.1328125,984953152,64
2.7734375,-0.19921875,0.134765625,984953152,64
2.763671875,-0.568359375,0.13671875,984953152,64
2.7734375,-0.7109375,0.138671875,984953152,64
2.7421875,-0.951171875,0.130859375,984953152,64
2.705078125,-0.439453125,0.1328125,984953152,64
2.765625,12656.697265625,-1.0,984953152,64
43.509765625,35.498046875,-1.0,984953152,64
44.509765625,35.998046875,-1.0,984953152,64
41.509765625,36.498046875,-1.0,984953152,64
46.509765625,33.498046875,-0.5,984953152,64
-35.490234375,33.5,-0.5,984953152,64
-11.990234375,49.9375,-0.001953125,984953152,64
-0.19921875,0.134765625,-0.001953125,984953152,64
-0.197265625,0.13671875,-0.001953125,984953152,64
-0.123046875,0.138671875,-0.001953125,984953152,64
-0.09375,0.140625,-0.001953125,984953152,64
0.123046875,0.138671875,0.0,984953152,64
0.23046875,0.140625,0.0,984953152,64
-1.265625,0.1328125,0.001953125,984953152,64
-1.205078125,0.134765625,0.001953125,984953152,64
-0.490234375,0.13671875,0.001953125,984953152,64
-0.431640625,0.13671875,0.00390625,984953152,64
36.498046875,1.0,19.0,984953152,64
36.498046875,-1.0,22.998046875,984953152,64
36.009765625,-0.5,44.998046875,984953152,64
6.490234375,0.0,40.0,984953152,64
-0.2578125,2.65625,0.62109375,1085438834,66
-0.173828125,2.72265625,0.541015625,1085438834,66
0.0,2.796875,0.384765625,1085438834,66
0.08984375,2.8359375,0.37890625,1085438834,66
0.08984375,2.87109375,0.435546875,1085438834,66
0.0,2.7890625,0.427734375,1085438834,66
1486.54296875,62.5078125,34.498046875,1085438834,66
-24.49609375,-40.4921875,35.498046875,1085438834,66
-9.49609375,53.5078125,35.998046875,1085438834,66
-14.494140625,53.0078125,36.498046875,1085438834,66
-10.994140625,17.5078125,34.498046875,1085438834,66
-23.49609375,-7.9921875,35.498046875,1085438834,66
-10.49609375,47.0078125,35.998046875,1085438834,66
-12.994140625,-59.4921875,36.498046875,1085438834,66
-3.494140625,-53.4921875,36.998046875,1085438834,66
7.505859375,-7.990234375,36.998046875,1085438834,66
20.50390625,47.009765625,37.0,1085438834,66
30.005859375,36.509765625,37.5,1085438834,66
40.005859375,6.509765625,33.5,1085438834,66
21.49609375,40.005859375,34.0078125,1085438834,66
39.99609375,32.005859375,37.0078125,1085438834,66
24.505859375,-32.490234375,32.5,1085438834,66
17.49609375,17.505859375,33.5078125,1085438834,66
-57.00390625,-44.49609375,34.0078125,1085438834,66
-32.00390625,-46.99609375,33.5078125,1085438834,66
51.998046875,29.009765625,34.498046875,1085438834,66
62.998046875,52.509765625,34.998046875,1085438834,66
-57.001953125,34.009765625,35.498046875,1085438834,66
-45.001953125,23.509765625,33.498046875,1085438834,66
36.998046875,-6.990234375,33.99609375,1085438834,66
46.498046875,-12.490234375,34.49609375,1085438834,66
62.998046875,31.509765625,34.998046875,1085438834,66
-52.001953125,54.009765625,35.498046875,1085438834,66
-42.001953125,49.509765625,49.943359375,1085438834,66
2.875,-0.310546875,0.12890625,1085438834,66
2.650390625,-0.482421875,0.130859375,1085438834,66
2.677734375,-0.55859375,0.1328125,1085438834,66
2.732421875,-0.4921875,0.134765625,1085438834,66
2.7890625,-0.34375,0.13671875,1085438834,66
2.8359375,-0.28515625,0.138671875,1085438834,66
2.875,-0.3125,0.12890625,1085438834,66
2.66796875,-0.3203125,0.130859375,1085438834,66
2.728515625,0.01953125,0.1328125,1085438834,66
2.7734375,-0.107421875,0.134765625,1085438834,66
2.80859375,-0.2109375,0.13671875,1085438834,66
2.84375,-0.291015625,0.12890625,1085438834,66
2.671875,-0.34375,0.130859375,1085438834,66
2.740234375,0.07421875,0.1328125,1085438834,66
2.779296875,-0.021484375,0.134765625,1085438834,66
2.818359375,-0.12109375,0.13671875,1085438834,66
2.85546875,-0.212890625,0.138671875,1085438834,66
2.892578125,-0.2578125,0.130859375,1085438834,66
2.734375,0.1796875,0.1328125,1085438834,66
2.77734375,0.1328125,0.134765625,1085438834,66
2.818359375,0.103515625,0.13671875,1085438834,66
2.86328125,0.0546875,0.138671875,1085438834,66
2.904296875,-0.0546875,0.130859375,1085438834,66
2.697265625,0.455078125,0.1328125,1085438834,66
2.6171875,0.908203125,0.134765625,1085438834,66
2.4921875,1.30078125,0.13671875,1085438834,66
2.71875,0.859375,0.138671875,1085438834,66
2.88671875,0.26171875,0.1328125,1085438834,66
2.7578125,-0.365234375,0.134765625,1085438834,66
2.8203125,-0.048828125,0.0234375,1085438834,66
-0.24609375,2.54296875,-0.572265625,1185428392,68
-0.25,2.6015625,-0.494140625,1185428392,68
-0.25390625,2.65625,-0.4140625,1185428392,68
-0.2578125,2.724609375,-0.142578125,1185428392,68
-0.34765625,2.748046875,0.25,1185428392,68
-0.353515625,2.787109375,0.279296875,1185428392,68
-0.166015625,2.63671875,-0.294921875,1185428392,68
-0.16796875,2.669921875,-0.357421875,1185428392,68
-0.171875,2.7109375,-0.3671875,1185428392,68
-0.26171875,2.759765625,-0.234375,1185428392,68
1.341796875,2.52734375,0.1171875,1185428392,68
1.361328125,2.564453125,0.068359375,1185428392,68
-0.16796875,2.67578125,-0.3125,1185428392,68
-0.171875,2.70703125,-0.392578125,1185428392,68
-0.173828125,2.72265625,-0.5390625,1185428392,68
1.251953125,2.5546875,0.328125,1185428392,68
1.361328125,2.552734375,0.24609375,1185428392,68
1.419921875,2.673828125,-0.029296875,1185428392,68
1.4375,2.705078125,0.171875,1185428392,68
0.0,2.521484375,-0.962890625,1185428392,68
0.0,2.60546875,-0.853515625,1185428392,68
1.431640625,2.4765625,-0.11328125,1185428392,68
1.453125,2.51171875,-0.126953125,1185428392,68
1.4375,2.6953125,0.2734375,1185428392,68
1.45703125,2.736328125,0.2265625,1185428392,68
0.0,2.58984375,-0.76171875,1185428392,68
-0.0859375,2.630859375,-0.765625,1185428392,68
0.0,2.66015625,12734.68359375,1185428392,68
-14.49609375,8.5078125,35.0,1185428392,68
-4.99609375,-1.9921875,35.998046875,1185428392,68
4.00390625,7.509765625,36.5,1185428392,68
13.50390625,23.009765625,37.498046875,1185428392,68
10.005859375,-39.490234375,33.99609375,1185428392,68
38.5,-51.490234375,49.74609375,1185428392,68
2.474609375,0.150390625,0.138671875,1185428392,68
2.509765625,0.171875,0.140625,1185428392,68
2.548828125,-0.107421875,0.142578125,1185428392,68
2.578125,-0.208984375,0.14453125,1185428392,68
2.60546875,-0.28125,0.146484375,1185428392,68
2.640625,-0.287109375,0.130859375,1185428392,68
2.61328125,-0.828125,0.140625,1185428392,68
2.6015625,0.001953125,0.142578125,1185428392,68
2.5859375,-0.068359375,0.14453125,1185428392,68
2.619140625,-0.09765625,0.146484375,1185428392,68
-21.490234375,33.998046875,3.5,1185428392,68
30.509765625,33.99609375,-4.0,1185428392,68
56.509765625,34.498046875,-4.0,1185428392,68
38.009765625,34.998046875,-4.0,1185428392,68
24.509765625,35.498046875,-4.0,1185428392,68
0.009765625,33.998046875,-3.5,1185428392,68
-50.490234375,34.498046875,-3.5,1185428392,68
-45.990234375,34.998046875,-3.5,1185428392,68
-50.490234375,35.498046875,-3.5,1185428392,68
62.009765625,33.498046875,-3.0,1185428392,68
-49.490234375,33.998046875,-3.0,1185428392,68
-0.146484375,0.1328125,-0.01171875,1185428392,68
-0.1796875,0.134765625,-0.01171875,1185428392,68
-0.259765625,0.13671875,-0.01171875,1185428392,68
-0.333984375,0.140625,-0.01171875,1185428392,68
-0.841796875,0.142578125,-0.01171875,1185428392,68
-0.87890625,0.125,-0.009765625,1185428392,68
-0.296875,0.126953125,-0.009765625,1185428392,68
-0.3515625,0.12890625,-0.009765625,1185428392,68
-0.37109375,0.0234375,0.0,1185428392,68
-0.31640625,2.3984375,-0.763671875,1285422402,70
-0.2421875,2.421875,-0.849609375,1285422402,70
-0.1640625,2.556640625,-0.537109375,1285422402,70
-0.166015625,2.50390625,-0.876953125,1285422402,70
-0.337890625,1.240234375,2.375,1285422402,70
0.0859375,2.740234375,0.01171875,1285422402,70
0.173828125,2.748046875,-0.396484375,1285422402,70
-0.31640625,2.439453125,-0.6171875,1285422402,70
-0.322265625,2.455078125,-0.712890625,1285422402,70
-0.1640625,2.580078125,-0.4140625,1285422402,70
-0.25,2.572265625,-0.625,1285422402,70
0.0,2.474609375,1.08203125,1285422402,70
0.0,2.740234375,-0.068359375,1285422402,70
0.0,2.767578125,-0.287109375,1285422402,70
0.087890625,2.787109375,-0.431640625,1285422402,70
0.08984375,2.796875,-0.603515625,1285422402,70
-0.31640625,2.48046875,-0.421875,1285422402,70
1.498046875,-5.490234375,32.49609375,1285422402,70
26.998046875,-59.490234375,32.998046875,1285422402,70
33.498046875,34.009765625,33.498046875,1285422402,70
35.5,18.009765625,33.501953125,1285422402,70
61.5,8.009765625,34.0,1285422402,70
-56.0,-21.990234375,34.998046875,1285422402,70
-46.5,-42.990234375,35.498046875,1285422402,70
-38.5,55.009765625,32.998046875,1285422402,70
39.998046875,-0.490234375,33.998046875,1285422402,70
60.5,41.009765625,34.0,1285422402,70
-57.0,41.009765625,34.5,1285422402,70
-46.5,39.009765625,36.0,1285422402,70
24.00390625,-54.990234375,36.998046875,1285422402,70
19.00390625,-62.990234375,34.998046875,1285422402,70
-14.49609375,-16.9921875,35.498046875,1285422402,70
-5.49609375,-20.4921875,35.998046875,1285422402,70
2.00390625,-47.990234375,49.9453125,1285422402,70
2.53515625,-0.287109375,0.142578125,1285422402,70
2.580078125,-0.1796875,0.146484375,1285422402,70
2.650390625,0.177734375,0.1484375,1285422402,70
2.6875,0.173828125,0.134765625,1285422402,70
2.443359375,0.09765625,0.13671875,1285422402,70
2.478515625,0.09375,0.138671875,1285422402,70
2.412109375,-0.490234375,0.140625,1285422402,70
2.53515625,-0.2734375,0.142578125,1285422402,70
2.583984375,-0.087890625,0.12890625,1285422402,70
2.595703125,-0.740234375,0.130859375,1285422402,70
31.009765625,34.99609375,-2.0,1285422402,70
42.5078125,35.0,-2.0,1285422402,70
28.5078125,35.5,-2.0,1285422402,70
-11.4921875,36.49609375,-2.0,1285422402,70
51.509765625,36.998046875,-2.0,1285422402,70
-30.990234375,33.498046875,-1.5,1285422402,70
-52.490234375,33.99609375,-1.5,1285422402,70
40.509765625,32.99609375,-1.0,1285422402,70
8.5078125,33.494140625,-1.0,1285422402,70
-5.498046875,33.98828125,-1.0,1285422402,70
25.50390625,34.490234375,-1.0,1285422402,70
-0.91796875,0.134765625,-0.00390625,1285422402,70
-0.51953125,0.125,-0.001953125,1285422402,70
-1.076171875,0.126953125,-0.001953125,1285422402,70
-1.619140625,0.12890625,-0.001953125,1285422402,70
-2.65234375,0.130859375,-0.001953125,1285422402,70
-2.2421875,0.1328125,-0.001953125,1285422402,70
-0.537109375,0.134765625,-0.001953125,1285422402,70
-0.32421875,0.12890625,0.0,1285422402,70
1.568359375,0.0234375,0.0,1285422402,70
-0.322265625,2.515625,-0.455078125,1385364300,72
-0.24609375,2.578125,-0.384765625,1385364300,72
-0.166015625,2.654296875,-0.01953125,1385364300,72
-0.083984375,2.6953125,-0.119140625,1385364300,72
-0.0859375,2.732421875,-0.197265625,1385364300,72
-0.087890625,2.7734375,-0.197265625,1385364300,72
12661.333984375,-14.990234375,33.498046875,1385364300,72
50.498046875,-4.490234375,33.998046875,1385364300,72
59.998046875,-31.990234375,34.498046875,1385364300,72
-59.001953125,57.509765625,34.998046875,1385364300,72
-47.001953125,-49.990234375,32.998046875,1385364300,72
24.498046875,-48.990234375,33.0,1385364300,72
44.498046875,51.509765625,33.5,1385364300,72
60.498046875,-25.490234375,34.498046875,1385364300,72
-56.5,-31.990234375,34.998046875,1385364300,72
-46.5,-34.990234375,35.498046875,1385364300,72
-37.0,-49.490234375,32.498046875,1385364300,72
2.578125,-0.419921875,0.126953125,1385364300,72
2.599609375,-0.533203125,0.12890625,1385364300,72
2.62109375,-0.625,0.130859375,1385364300,72
2.509765625,-1.08984375,0.1328125,1385364300,72
2.755859375,0.3671875,0.134765625,1385364300,72
2.822265625,0.0390625,0.13671875,1385364300,72
2.86328125,-0.072265625,0.125,1385364300,72
2.607421875,-0.16796875,0.126953125,1385364300,72
2.623046875,-0.359375,0.12890625,1385364300,72
2.66015625,-0.423828125,0.130859375,1385364300,72
2.681640625,12734.4609375,2.0,1385364300,72
-38.490234375,34.99609375,2.0,1385364300,72
44.009765625,32.0,2.5,1385364300,72
10.509765625,32.5,2.5,1385364300,72
-48.990234375,33.498046875,2.5,1385364300,72
58.009765625,33.998046875,2.5,1385364300,72
57.509765625,49.9375,0.009765625,1385364300,72
-0.1640625,0.134765625,0.009765625,1385364300,72
-0.080078125,0.13671875,-0.009765625,1385364300,72
-0.22265625,0.138671875,-0.009765625,1385364300,72
0.005859375,0.130859375,-0.0078125,1385364300,72
-0.15234375,0.1328125,-0.0078125,1385364300,72
-0.12109375,0.134765625,-0.0078125,1385364300,72
-0.1640625,0.13671875,-0.0078125,1385364300,72
-0.193359375,0.138671875,-0.0078125,1385364300,72
0.099609375,0.12890625,-0.005859375,1385364300,72
-0.72265625,0.130859375,-0.005859375,1385364300,72
34.0,-1.5,-51.001953125,1385364300,72
34.5,-1.5,-52.501953125,1385364300,72
35.0,-1.5,-46.001953125,1385364300,72
35.998046875,-1.5,61.998046875,1385364300,72
33.49609375,-1.0,36.998046875,1385364300,72
33.5,-1.0,-63.501953125,1385364300,72
34.0,-1.0,51.998046875,1385364300,72
34.998046875,-1.0,44.998046875,1385364300,72
35.0,-1.0,-61.001953125,1385364300,72
35.998046875,-1.0,63.998046875,1385364300,72
31.998046875,-0.5,49.86328125,1385364300,72
0.125,-0.001953125,0.087890625,1385364300,72
0.126953125,-0.001953125,0.154296875,1385364300,72
0.12890625,-0.001953125,0.17578125,1385364300,72
0.130859375,-0.001953125,0.171875,1385364300,72
0.1328125,0.0,0.0859375,1385364300,72
0.126953125,0.00390625,0.072265625,1385364300,72
0.13671875,-0.009765625,0.041015625,1385364300,72
0.130859375,-0.0078125,0.087890625,1385364300,72
0.0234375,0.0,-2.4375,1385364300,72
-0.25,2.64453125,-0.123046875,1485076844,74
-0.16796875,2.67578125,-0.314453125,1485076844,74
-0.0859375,2.689453125,-0.525390625,1485076844,74
0.0,2.66796875,-0.78515625,1485076844,74
1.412109375,2.439453125,-0.169921875,1485076844,74
1.431640625,2.443359375,-0.419921875,1485076844,74
-14.52734375,-1.990234375,32.998046875,1485076844,74
35.498046875,18.009765625,33.0,1485076844,74
45.998046875,17.509765625,33.5,1485076844,74
44.99609375,-46.490234375,34.0,1485076844,74
-3.49609375,56.0078125,34.998046875,1485076844,74
-15.99609375,-44.9921875,35.498046875,1485076844,74
-20.99609375,-12.4921875,32.49609375,1485076844,74
5.498046875,-41.990234375,32.99609375,1485076844,74
22.998046875,-23.490234375,33.49609375,1485076844,74
54.49609375,0.505859375,33.5078125,1485076844,74
59.5,-48.990234375,34.498046875,1485076844,74
2.779296875,-0.08203125,0.123046875,1485076844,74
2.47265625,-0.68359375,0.125,1485076844,74
2.525390625,-0.64453125,0.126953125,1485076844,74
2.57421875,-0.6171875,0.12890625,1485076844,74
2.638671875,-0.515625,0.130859375,1485076844,74
2.728515625,0.23828125,0.1328125,1485076844,74
2.77734375,0.158203125,0.126953125,1485076844,74
2.603515625,-0.42578125,0.12890625,1485076844,74
2.65625,-0.41015625,0.130859375,1485076844,74
2.52734375,-1.060546875,0.126953125,1485076844,74
2.4765625,12733.03125,-1.5,1485076844,74
20.009765625,33.99609375,-1.5,1485076844,74
30.509765625,34.49609375,-1.5,1485076844,74
-62.490234375,34.99609375,-1.5,1485076844,74
42.009765625,32.998046875,-1.0,1485076844,74
-63.990234375,33.49609375,-1.0,1485076844,74
58.509765625,49.740234375,-0.00390625,1485076844,74
-0.8125,0.1328125,-0.00390625,1485076844,74
-0.875,0.134765625,-0.00390625,1485076844,74
-1.044921875,0.126953125,-0.001953125,1485076844,74
-0.544921875,0.12890625,-0.001953125,1485076844,74
-0.603515625,0.130859375,-0.001953125,1485076844,74
-0.666015625,0.1328125,-0.001953125,1485076844,74
-0.8046875,0.134765625,-0.001953125,1485076844,74
-0.15234375,0.138671875,-0.001953125,1485076844,74
0.095703125,0.140625,-0.001953125,1485076844,74
0.083984375,0.142578125,-0.001953125,1485076844,74
34.0,0.0,39.5,1485076844,74
34.998046875,0.0,30.5,1485076844,74
35.49609375,0.0,26.5,1485076844,74
33.994140625,0.5,63.0,1485076844,74
34.498046875,0.5,37.5,1485076844,74
34.501953125,0.5,34.5,1485076844,74
35.0,0.5,51.5,1485076844,74
33.498046875,1.0,19.5,1485076844,74
33.5,1.0,33.0,1485076844,74
34.498046875,1.0,30.5,1485076844,74
34.998046875,-0.5,29.498046875,1485076844,74
35.994140625,-0.5,21.498046875,1485076844,74
6.009765625,0.0,0.50390625,1485076844,74
-0.166015625,2.61328125,-0.45703125,1585445809,76
-0.083984375,2.6640625,-0.4296875,1585445809,76
-0.0859375,2.708984375,-0.40625,1585445809,76
-0.173828125,2.74609375,-0.412109375,1585445809,76
0.0,2.626953125,-1.03515625,1585445809,76
1.341796875,2.48046875,-0.49609375,1585445809,76
-0.083984375,2.6171875,-0.46484375,1585445809,76
0.0,2.650390625,-0.51171875,1585445809,76
-0.0859375,2.712890625,-0.380859375,1585445809,76
-0.173828125,2.763671875,-0.267578125,1585445809,76
-0.17578125,2.8046875,-0.26953125,1585445809,76
1.341796875,2.451171875,-0.626953125,1585445809,76
1.453125,2.4609375,-0.517578125,1585445809,76
-0.083984375,2.611328125,-0.4921875,1585445809,76
0.0,2.64453125,-0.5390625,1585445809,76
-0.0859375,2.69921875,-0.462890625,1585445809,76
-0.173828125,2.748046875,-0.39453125,1585445809,76
-0.17578125,2.796875,-0.34375,1585445809,76
1.431640625,2.47265625,-0.181640625,1585445809,76
1.453125,2.486328125,-0.37890625,1585445809,76
0.0,2.611328125,-0.6875,1585445809,76
-0.0859375,2.66015625,-0.654296875,1585445809,76
-0.26171875,2.740234375,-0.3984375,1585445809,76
-0.353515625,2.79296875,-0.203125,1585445809,76
1.341796875,2.517578125,-0.2421875,1585445809,76
1.453125,2.478515625,-0.42578125,1585445809,76
2.0703125,2.58203125,-0.150390625,1585445809,76
-0.083984375,2.61328125,-0.67578125,1585445809,76
-0.171875,2.68359375,-0.533203125,1585445809,76
-0.34765625,2.755859375,-0.154296875,1585445809,76
1.412109375,2.44140625,-0.115234375,1585445809,76
1.341796875,2.521484375,-0.205078125,1585445809,76
1.453125,2.498046875,-0.29296875,1585445809,76
1.47265625,2.533203125,12655.705078125,1585445809,76
-32.99609375,-27.9921875,34.498046875,1585445809,76
-10.99609375,-3.4921875,34.998046875,1585445809,76
-13.99609375,-3.9921875,35.498046875,1585445809,76
7.50390625,-12.490234375,35.998046875,1585445809,76
3.00390625,-33.490234375,36.498046875,1585445809,76
-2.494140625,-39.9921875,35.498046875,1585445809,76
7.00390625,29.509765625,31.5,1585445809,76
6.498046875,22.009765625,32.498046875,1585445809,76
16.498046875,19.009765625,32.998046875,1585445809,76
23.998046875,2.009765625,32.498046875,1585445809,76
21.998046875,60.009765625,32.998046875,1585445809,76
31.498046875,52.509765625,33.498046875,1585445809,76
40.998046875,26.509765625,32.998046875,1585445809,76
37.998046875,0.509765625,33.0,1585445809,76
48.498046875,19.509765625,33.5,1585445809,76
58.998046875,16.509765625,34.0,1585445809,76
-59.501953125,39.009765625,32.5,1585445809,76
34.998046875,-46.990234375,33.0,1585445809,76
46.998046875,-61.490234375,33.5,1585445809,76
59.498046875,43.009765625,34.0,1585445809,76
-57.001953125,-18.490234375,32.998046875,1585445809,76
31.998046875,-25.990234375,33.0,1585445809,76
46.998046875,-58.990234375,33.5,1585445809,76
58.998046875,-60.490234375,34.498046875,1585445809,76
-59.5,55.509765625,34.998046875,1585445809,76
-46.0,-33.990234375,32.998046875,1585445809,76
37.498046875,33.509765625,33.0,1585445809,76
36.998046875,-5.990234375,33.99609375,1585445809,76
54.498046875,26.509765625,34.498046875,1585445809,76
-56.501953125,-36.490234375,6.498046875,1585445809,76
-0.16796875,2.693359375,-0.080078125,1684818591,78
-0.171875,2.658203125,0.642578125,1684818591,78
-0.34765625,2.703125,0.55859375,1684818591,78
1.412109375,2.419921875,-0.341796875,1684818591,78
1.47265625,2.54296875,-0.1875,1684818591,78
1.4921875,2.580078125,-0.181640625,1684818591,78
180.013671875,-42.490234375,33.498046875,1684818591,78
45.498046875,63.009765625,33.5,1684818591,78
51.998046875,-30.990234375,34.0,1684818591,78
62.498046875,-49.990234375,34.5,1684818591,78
50.5,-42.990234375,36.001953125,1684818591,78
13.00390625,-15.490234375,36.998046875,1684818591,78
22.00390625,4.009765625,37.0,1684818591,78
44.00390625,31.509765625,33.5,1684818591,78
45.498046875,-4.490234375,34.0,1684818591,78
52.998046875,-5.990234375,34.5,1684818591,78
1.0,-4.9921875,35.005859375,1684818591,78
19.00390625,11.009765625,35.5,1684818591,78
28.50390625,21.009765625,36.0,1684818591,78
12.50390625,25.509765625,34.5,1684818591,78
7.00390625,61.009765625,35.0,1684818591,78
16.00390625,-62.990234375,35.5,1684818591,78
26.00390625,56.009765625,35.0,1684818591,78
9.50390625,-14.990234375,35.5,1684818591,78
-29.99609375,50.5078125,36.49609375,1684818591,78
-26.49609375,33.0078125,33.99609375,1684818591,78
32.0,54.509765625,36.49609375,1684818591,78
-18.99609375,54.5078125,33.49609375,1684818591,78
23.498046875,-62.490234375,33.99609375,1684818591,78
40.498046875,-38.490234375,34.49609375,1684818591,78
59.498046875,-6.490234375,35.49609375,1684818591,78
-14.49609375,-40.4921875,34.49609375,1684818591,78
60.00390625,25.5078125,34.99609375,1684818591,78
44.5,-25.990234375,0.328125,1684818591,78
2.158203125,-1.068359375,0.134765625,1684818591,78
2.388671875,-0.11328125,0.1328125,1684818591,78
2.3515625,-0.52734375,0.134765625,1684818591,78
2.537109375,-0.05859375,0.13671875,1684818591,78
1.16015625,-2.611328125,0.138671875,1684818591,78
2.4140625,-1.611328125,0.13671875,1684818591,78
2.08984375,-1.94921875,0.0234375,1684818591,78
-0.24609375,2.60546875,0.033203125,1785442050,80
-0.25,2.646484375,0.037109375,1785442050,80
-0.337890625,2.67578125,0.125,1785442050,80
-0.427734375,2.6484375,0.5625,1785442050,80
-0.609375,2.701171875,-0.271484375,1785442050,80
0.17578125,2.75,0.61328125,1785442050,80
-0.166015625,2.626953125,0.376953125,1785442050,80
-0.171875,2.708984375,0.380859375,1785442050,80
-0.26171875,2.76953125,0.044921875,1785442050,80
-0.44140625,2.779296875,-0.212890625,1785442050,80
-0.24609375,2.587890625,0.318359375,1785442050,80
-0.166015625,2.62109375,0.419921875,1785442050,80
-0.25390625,2.650390625,0.451171875,1785442050,80
-0.2578125,2.712890625,0.298828125,1785442050,80
-0.26171875,2.767578125,0.119140625,1785442050,80
-0.353515625,2.80078125,-0.00390625,1785442050,80
-0.24609375,2.5546875,0.517578125,1785442050,80
-0.25,2.595703125,0.5234375,1785442050,80
-0.25390625,2.650390625,0.443359375,1785442050,80
-0.171875,2.72265625,0.2734375,1785442050,80
-0.173828125,2.767578125,0.212890625,1785442050,80
-0.263671875,2.802734375,0.1953125,1785442050,80
1.431640625,2.408203125,-0.591796875,1785442050,80
1.54296875,2.3984375,-0.546875,1785442050,80
1.47265625,2.4765625,-0.61328125,1785442050,80
1.431640625,2.4765625,-0.1328125,1785442050,80
1.453125,2.4921875,-0.3359375,1785442050,80
1.47265625,2.509765625,-0.453125,1785442050,80
1.234375,2.53515625,0.119140625,1785442050,80
1.341796875,2.52734375,0.080078125,1785442050,80
1.306640625,2.599609375,-0.673828125,1785442050,80
1.32421875,2.63671875,-0.673828125,1785442050,80
1.3046875,2.453125,-0.150390625,1785442050,80
1.412109375,2.44140625,12657.37890625,1785442050,80
-5.49609375,-14.9921875,36.498046875,1785442050,80
20.00390625,40.009765625,36.998046875,1785442050,80
27.50390625,26.509765625,37.498046875,1785442050,80
33.50390625,7.009765625,37.998046875,1785442050,80
15.505859375,-52.990234375,33.99609375,1785442050,80
56.0,40.009765625,34.498046875,1785442050,80
-62.5,32.509765625,34.998046875,1785442050,80
-19.49609375,-46.4921875,35.0,1785442050,80
-35.001953125,-21.490234375,35.998046875,1785442050,80
-24.5,-19.490234375,36.498046875,1785442050,80
2.93359375,0.2109375,0.142578125,1785442050,80
2.63671875,-0.06640625,0.14453125,1785442050,80
2.66796875,-0.17578125,0.146484375,1785442050,80
2.64453125,-0.259765625,0.126953125,1785442050,80
2.583984375,-0.6015625,0.12890625,1785442050,80
2.615234375,-0.66796875,0.130859375,1785442050,80
2.6953125,-0.484375,0.1328125,1785442050,80
2.779296875,0.021484375,0.134765625,1785442050,80
2.814453125,-0.205078125,0.13671875,1785442050,80
2.853515625,-0.208984375,0.138671875,1785442050,80
2.892578125,-0.244140625,0.126953125,1785442050,80
2.634765625,-0.3125,0.12890625,1785442050,80
2.6640625,-0.41015625,0.130859375,1785442050,80
2.66015625,-0.640625,0.1328125,1785442050,80
2.751953125,-0.392578125,0.134765625,1785442050,80
2.822265625,-0.08203125,0.13671875,1785442050,80
2.86328125,-0.060546875,0.138671875,1785442050,80
2.90234375,-0.087890625,0.126953125,1785442050,80
2.646484375,-0.185546875,0.12890625,1785442050,80
2.669921875,-0.31640625,0.0234375,1785442050,80
-0.3125,2.45703125,-0.30859375,1885301274,82
-0.23828125,2.51171875,-0.255859375,1885301274,82
-0.25390625,2.576171875,-0.767578125,1885301274,82
-0.171875,2.701171875,-0.427734375,1885301274,82
-0.173828125,2.763671875,-0.263671875,1885301274,82
-0.17578125,2.814453125,-0.123046875,1885301274,82
127620.1875,-50.4921875,31.498046875,1885301274,82
4.998046875,-52.490234375,33.498046875,1885301274,82
44.5,-25.9921875,33.9921875,1885301274,82
-32.5,33.5078125,34.494140625,1885301274,82
44.0,57.509765625,34.99609375,1885301274,82
-52.501953125,26.009765625,30.998046875,1885301274,82
-4.501953125,-32.4921875,33.498046875,1885301274,82
21.498046875,55.509765625,33.99609375,1885301274,82
38.498046875,-50.990234375,34.49609375,1885301274,82
63.5,18.009765625,34.998046875,1885301274,82
-48.501953125,62.509765625,33.498046875,1885301274,82
2.685546875,-0.271484375,0.130859375,1885301274,82
2.728515625,-0.248046875,0.1328125,1885301274,82
2.77734375,-0.15234375,0.134765625,1885301274,82
2.8203125,-0.099609375,0.13671875,1885301274,82
2.861328125,-0.0625,0.12890625,1885301274,82
2.6875,0.20703125,0.1328125,1885301274,82
2.775390625,0.201171875,0.12890625,1885301274,82
2.642578125,0.5234375,0.130859375,1885301274,82
2.701171875,0.4609375,0.130859375,1885301274,82
2.509765625,-1.1015625,0.12890625,1885301274,82
2.580078125,12733.705078125,-3.5,1885301274,82
58.509765625,34.49609375,-3.5,1885301274,82
54.009765625,33.49609375,-3.0,1885301274,82
40.509765625,33.99609375,-3.0,1885301274,82
45.009765625,34.49609375,-3.0,1885301274,82
52.009765625,32.99609375,-2.5,1885301274,82
-53.490234375,49.73828125,-0.009765625,1885301274,82
-0.69921875,0.130859375,-0.009765625,1885301274,82
-0.736328125,0.1328125,-0.009765625,1885301274,82
-0.7578125,0.134765625,-0.009765625,1885301274,82
-0.82421875,0.12890625,-0.0078125,1885301274,82
-0.728515625,0.130859375,-0.0078125,1885301274,82
-0.71875,0.1328125,-0.0078125,1885301274,82
-0.728515625,0.134765625,-0.0078125,1885301274,82
-0.78125,0.130859375,-0.005859375,1885301274,82
-0.2109375,0.1328125,-0.005859375,1885301274,82
0.611328125,0.134765625,-0.005859375,1885301274,82
33.0,-1.0,14.498046875,1885301274,82
33.99609375,-1.0,33.998046875,1885301274,82
34.49609375,-1.0,41.998046875,1885301274,82
34.998046875,-1.0,37.998046875,1885301274,82
35.498046875,-1.0,26.498046875,1885301274,82
33.0,-0.5,43.498046875,1885301274,82
33.99609375,-0.5,-24.001953125,1885301274,82
34.498046875,-0.5,-6.001953125,1885301274,82
34.998046875,-0.5,-46.501953125,1885301274,82
35.498046875,-0.5,36.498046875,1885301274,82
35.5,-0.5,49.953125,1885301274,82
0.140625,-0.001953125,0.142578125,1885301274,82
0.1328125,0.001953125,0.220703125,1885301274,82
0.134765625,0.001953125,0.24609375,1885301274,82
0.130859375,-0.005859375,0.044921875,1885301274,82
0.12890625,-0.00390625,0.029296875,1885301274,82
0.130859375,-0.00390625,0.068359375,1885301274,82
0.13671875,-0.00390625,0.056640625,1885301274,82
0.13671875,-0.001953125,0.10546875,1885301274,82
0.0234375,0.0,-63.4375,1885301274,82
-0.23828125,2.51171875,-0.267578125,1985435578,84
-0.2421875,2.560546875,-0.1640625,1985435578,84
-0.328125,2.595703125,-0.0703125,1985435578,84
-0.33203125,2.63671875,0.06640625,1985435578,84
-0.25390625,2.6875,0.03125,1985435578,84
-0.2578125,2.728515625,0.005859375,1985435578,84
-0.173828125,2.775390625,-0.060546875,1985435578,84
1.400390625,2.63671875,-0.064453125,1985435578,84
1.32421875,2.720703125,-0.052734375,1985435578,84
-0.234375,2.48046875,-0.150390625,1985435578,84
-0.23828125,2.51953125,-0.173828125,1985435578,84
-0.2421875,2.5546875,-0.236328125,1985435578,84
-0.16796875,2.6875,-0.181640625,1985435578,84
-0.171875,2.73046875,-0.173828125,1985435578,84
-0.087890625,2.77734375,-0.123046875,1985435578,84
-0.087890625,2.814453125,-0.197265625,1985435578,84
0.0,2.8515625,-0.265625,1985435578,84
1.380859375,2.6015625,0.0625,1985435578,84
1.400390625,2.6328125,0.16015625,1985435578,84
1.32421875,2.71484375,0.1875,1985435578,84
-0.0859375,2.73828125,-0.052734375,1985435578,84
0.0,2.78125,-0.04296875,1985435578,84
0.0,2.822265625,-0.078125,1985435578,84
0.0,2.861328125,-0.123046875,1985435578,84
1.2890625,2.646484375,0.119140625,1985435578,84
1.306640625,2.671875,0.265625,1985435578,84
0.0,2.740234375,0.037109375,1985435578,84
0.0,2.78125,0.01953125,1985435578,84
0.0,2.822265625,-0.017578125,1985435578,84
0.0,2.861328125,-0.091796875,1985435578,84
1.54296875,2.44921875,0.236328125,1985435578,84
1.47265625,2.541015625,-0.220703125,1985435578,84
0.0,2.78125,0.05859375,1985435578,84
0.0,2.822265625,35.00390625,1985435578,84
-36.0,-35.990234375,35.998046875,1985435578,84
3.00390625,-38.490234375,36.498046875,1985435578,84
4.50390625,22.509765625,36.998046875,1985435578,84
16.00390625,37.509765625,34.998046875,1985435578,84
-1.99609375,-21.9921875,35.498046875,1985435578,84
7.50390625,-8.490234375,35.998046875,1985435578,84
16.50390625,-24.490234375,36.498046875,1985435578,84
8.50390625,51.009765625,36.998046875,1985435578,84
15.00390625,32.509765625,34.998046875,1985435578,84
-2.49609375,26.5078125,35.0,1985435578,84
2.916015625,0.14453125,0.138671875,1985435578,84
2.564453125,0.072265625,0.140625,1985435578,84
2.548828125,-0.115234375,0.142578125,1985435578,84
2.572265625,-0.265625,0.14453125,1985435578,84
2.6015625,-0.6171875,0.146484375,1985435578,84
2.68359375,-0.642578125,0.140625,1985435578,84
2.599609375,0.083984375,0.142578125,1985435578,84
2.63671875,-0.080078125,0.14453125,1985435578,84
2.650390625,-0.34765625,0.146484375,1985435578,84
2.673828125,-0.44140625,0.12890625,1985435578,84
2.650390625,-0.482421875,0.130859375,1985435578,84
61.509765625,34.498046875,-1.5,1985435578,84
-55.490234375,34.998046875,-1.5,1985435578,84
-49.990234375,35.498046875,-1.5,1985435578,84
-50.490234375,32.498046875,-1.0,1985435578,84
39.509765625,32.998046875,-1.0,1985435578,84
29.509765625,33.498046875,-1.0,1985435578,84
27.509765625,33.998046875,-1.0,1985435578,84
-29.990234375,34.498046875,-1.0,1985435578,84
-3.490234375,6.498046875,0.0,1985435578,84
-0.23828125,2.521484375,-0.1328125,2085436689,86
-0.322265625,2.556640625,-0.048828125,2085436689,86
-0.328125,2.59765625,-0.04296875,2085436689,86
-0.166015625,2.65234375,-0.06640625,2085436689,86
-0.16796875,2.689453125,-0.17578125,2085436689,86
-0.171875,2.734375,-0.03125,2085436689,86
127441.826171875,44.509765625,34.5,2085436689,86
-47.501953125,53.509765625,37.0,2085436689,86
31.005859375,6.509765625,30.5,2085436689,86
-2.001953125,6.0078125,31.0,2085436689,86
8.498046875,-10.490234375,32.998046875,2085436689,86
35.998046875,47.009765625,33.498046875,2085436689,86
45.998046875,43.009765625,33.998046875,2085436689,86
58.0,57.509765625,34.498046875,2085436689,86
-57.001953125,-43.490234375,37.498046875,2085436689,86
56.00390625,38.509765625,37.5,2085436689,86
61.00390625,-41.990234375,33.0,2085436689,86
2.669921875,-0.396484375,0.130859375,2085436689,86
2.72265625,-0.314453125,0.1328125,2085436689,86
2.7734375,-0.20703125,0.134765625,2085436689,86
2.818359375,-0.1171875,0.12890625,2085436689,86
2.607421875,-0.69921875,0.130859375,2085436689,86
2.625,-0.7890625,0.1328125,2085436689,86
2.638671875,-0.880859375,0.134765625,2085436689,86
2.67578125,-0.900390625,0.12890625,2085436689,86
2.630859375,-0.603515625,0.130859375,2085436689,86
2.6875,-0.533203125,0.1328125,2085436689,86
2.73828125,12656.5078125,2.0,2085436689,86
13.009765625,37.498046875,2.0,2085436689,86
-18.490234375,37.5,2.0,2085436689,86
61.009765625,33.5,2.5,2085436689,86
42.009765625,34.0,2.5,2085436689,86
-48.990234375,37.5,2.5,2085436689,86
-28.490234375,0.130859375,0.013671875,2085436689,86
-0.724609375,0.1328125,0.013671875,2085436689,86
-0.74609375,0.130859375,-0.015625,2085436689,86
2.154296875,0.1328125,-0.015625,2085436689,86
2.142578125,0.1328125,-0.01171875,2085436689,86
-0.271484375,0.134765625,-0.01171875,2085436689,86
-0.287109375,0.13671875,-0.01171875,2085436689,86
-0.3125,0.138671875,-0.01171875,2085436689,86
-0.35546875,0.1328125,-0.009765625,2085436689,86
-0.232421875,0.134765625,-0.009765625,2085436689,86
-0.212890625,0.13671875,-0.009765625,2085436689,86
35.998046875,-2.5,45.498046875,2085436689,86
33.998046875,-2.0,22.998046875,2085436689,86
34.001953125,-2.0,-48.501953125,2085436689,86
34.998046875,-2.0,53.998046875,2085436689,86
35.498046875,-2.0,37.998046875,2085436689,86
35.998046875,-2.0,-59.001953125,2085436689,86
32.998046875,-1.5,12.998046875,2085436689,86
33.49609375,-1.5,27.498046875,2085436689,86
33.99609375,-1.5,14.998046875,2085436689,86
34.494140625,-1.5,58.998046875,2085436689,86
34.998046875,-1.5,498.51171875,2085436689,86
0.13671875,-0.005859375,0.39453125,2085436689,86
0.138671875,-0.005859375,0.1484375,2085436689,86
0.125,-0.00390625,0.0546875,2085436689,86
0.126953125,-0.00390625,0.21875,2085436689,86
0.12890625,-0.00390625,0.572265625,2085436689,86
0.130859375,-0.00390625,0.525390625,2085436689,86
0.1328125,-0.00390625,0.09375,2085436689,86
0.134765625,-0.00390625,0.197265625,2085436689,86
0.0234375,0.0,25.15625,2085436689,86
-0.328125,2.591796875,0.169921875,2235439743,89
-0.25,2.640625,0.19921875,2235439743,89
-0.16796875,2.68359375,0.234375,2235439743,89
-0.171875,2.732421875,0.109375,2235439743,89
-0.173828125,2.775390625,0.01171875,2235439743,89
0.0,2.8203125,0.111328125,2235439743,89
-0.08984375,2.859375,0.123046875,2235439743,89
1.419921875,2.666015625,-0.20703125,2235439743,89
-0.166015625,2.638671875,0.287109375,2235439743,89
-0.16796875,2.689453125,0.150390625,2235439743,89
