-59.5,-27.990234375,38.998046875,459993898,95
-44.505859375,-54.490234375,39.498046875,459993898,95
-34.005859375,-40.990234375,39.998046875,459993898,95
494.541015625,-0.05859375,0.126953125,459993898,95
2.603515625,-0.3515625,0.12890625,459993898,95
2.638671875,-0.388671875,0.130859375,459993898,95
2.671875,-0.4296875,0.1328125,459993898,95
2.7109375,-0.568359375,0.150390625,459993898,95
2.78125,-0.03515625,0.15234375,459993898,95
2.818359375,0.00390625,0.154296875,459993898,95
2.853515625,0.056640625,0.126953125,459993898,95
2.6328125,-0.17578125,0.12890625,459993898,95
2.673828125,-0.26953125,0.130859375,459993898,95
2.71875,-0.23828125,0.1328125,459993898,95
-39.490234375,34.998046875,-1.0,459993898,95
11.509765625,32.5,-0.5,459993898,95
-34.990234375,33.498046875,-0.5,459993898,95
-34.490234375,33.998046875,-0.5,459993898,95
-1.990234375,34.498046875,-0.5,459993898,95
45.509765625,34.5,-0.5,459993898,95
23.509765625,34.001953125,-1.5,459993898,95
-61.5,6.0078125,0.0,459993898,95
0.396484375,2.50390625,0.0859375,559594951,97
0.40234375,2.541015625,0.154296875,559594951,97
0.328125,2.59765625,0.041015625,559594951,97
0.498046875,2.607421875,-0.158203125,559594951,97
0.421875,2.66015625,-0.189453125,559594951,97
0.427734375,2.697265625,-0.228515625,559594951,97
-4.103515625,-41.4921875,31.5,559594951,97
6.0,-41.990234375,32.0,559594951,97
22.0,62.009765625,32.5,559594951,97
29.0,60.509765625,33.498046875,559594951,97
31.5,5.009765625,33.998046875,559594951,97
43.501953125,38.009765625,36.998046875,559594951,97
3.9921875,-56.490234375,37.0,559594951,97
12.9921875,-53.990234375,37.5,559594951,97
6.4921875,-63.990234375,31.5,559594951,97
-1.5,16.0078125,32.501953125,559594951,97
17.5,-5.990234375,33.0,559594951,97
33.0,-13.990234375,33.5,559594951,97
44.5,-19.990234375,34.0,559594951,97
56.5,-30.990234375,36.5,559594951,97
-6.5078125,8.5078125,37.001953125,559594951,97
-13.0078125,7.0078125,37.501953125,559594951,97
-6.0078125,15.5078125,32.501953125,559594951,97
12.0,36.509765625,33.001953125,559594951,97
28.0,27.509765625,33.501953125,559594951,97
37.0,33.009765625,34.001953125,559594951,97
51.5,28.509765625,37.001953125,559594951,97
-29.0078125,-61.9921875,33.001953125,559594951,97
7.0,-28.490234375,33.501953125,559594951,97
12.5,-6.490234375,46.001953125,559594951,97
-8.4921875,26.509765625,46.501953125,559594951,97
-1.4921875,34.509765625,32.501953125,559594951,97
30.5,-48.490234375,33.498046875,559594951,97
37.001953125,-50.990234375,49.935546875,559594951,97
2.685546875,-0.33984375,0.1328125,559594951,97
2.775390625,0.013671875,0.125,559594951,97
2.59375,0.12890625,0.126953125,559594951,97
2.626953125,0.015625,0.12890625,559594951,97
2.666015625,-0.0546875,0.130859375,559594951,97
2.701171875,-0.185546875,0.1328125,559594951,97
2.76953125,0.1953125,0.134765625,559594951,97
2.810546875,0.18359375,0.0234375,559594951,97
0.25,2.62890625,-0.3125,659658229,99
0.0,2.5234375,-0.962890625,659658229,99
0.599609375,2.6640625,0.244140625,659658229,99
0.521484375,2.724609375,0.216796875,659658229,99
0.44140625,2.72265625,0.6015625,659658229,99
0.33203125,2.62109375,-0.306640625,659658229,99
-43.91015625,30.009765625,33.5,659658229,99
47.501953125,49.009765625,34.0,659658229,99
51.501953125,-22.990234375,32.5,659658229,99
31.5,-27.990234375,33.498046875,659658229,99
39.001953125,-3.490234375,33.998046875,659658229,99
49.001953125,20.009765625,34.0,659658229,99
61.0,54.509765625,34.5,659658229,99
60.0,12.009765625,32.501953125,659658229,99
32.5,9.509765625,33.0,659658229,99
42.5,11.009765625,33.5,659658229,99
52.5,21.009765625,34.0,659658229,99
2.7421875,0.16015625,0.134765625,659658229,99
2.78125,0.330078125,0.130859375,659658229,99
2.708984375,-0.240234375,0.125,659658229,99
2.603515625,0.126953125,0.126953125,659658229,99
2.64453125,0.23046875,0.12890625,659658229,99
2.650390625,0.068359375,0.130859375,659658229,99
2.703125,0.142578125,0.1328125,659658229,99
2.72265625,0.3671875,0.125,659658229,99
2.576171875,0.390625,0.130859375,659658229,99
2.64453125,0.40234375,0.1328125,659658229,99
2.705078125,0.390625,0.134765625,659658229,99
2.740234375,0.2734375,0.13671875,659658229,99
2.763671875,0.2109375,0.126953125,659658229,99
2.521484375,0.517578125,0.12890625,659658229,99
2.5859375,0.505859375,0.130859375,659658229,99
2.662109375,0.40625,0.1328125,659658229,99
2.71484375,34.50390625,-1.5,659658229,99
-3.990234375,33.498046875,-1.0,659658229,99
-54.990234375,33.501953125,-1.0,659658229,99
-38.490234375,34.0,-1.0,659658229,99
-57.990234375,34.5,-1.0,659658229,99
-14.490234375,32.5,-0.5,659658229,99
49.009765625,33.49609375,-0.5,659658229,99
-63.9921875,33.994140625,-0.5,659658229,99
50.509765625,34.0,-0.5,659658229,99
-26.490234375,36.498046875,-0.5,659658229,99
-45.990234375,36.5,-0.5,659658229,99
0.384765625,0.12890625,0.0,659658229,99
0.67578125,0.134765625,0.0,659658229,99
-1.998046875,0.12890625,-0.001953125,659658229,99
1.01171875,0.0234375,0.0,659658229,99
0.341796875,2.677734375,-0.4765625,859847875,103
0.34765625,2.732421875,-0.38671875,859847875,103
0.353515625,2.78515625,-0.28515625,859847875,103
0.267578125,2.83984375,-0.25390625,859847875,103
-1.380859375,2.591796875,0.22265625,859847875,103
-1.400390625,2.626953125,0.240234375,859847875,103
12501.986328125,50.009765625,37.5,859847875,103
40.4921875,12.009765625,34.0,859847875,103
53.5,10.509765625,34.998046875,859847875,103
-55.5,48.009765625,35.498046875,859847875,103
-43.5,-61.990234375,36.498046875,859847875,103
18.494140625,-25.990234375,36.5,859847875,103
26.494140625,-17.490234375,37.0,859847875,103
37.494140625,-27.490234375,37.5,859847875,103
-62.505859375,45.509765625,34.0,859847875,103
-62.0,-26.990234375,34.998046875,859847875,103
-51.5,-15.990234375,35.498046875,859847875,103
-40.5,0.509765625,36.0,859847875,103
14.494140625,-0.990234375,36.5,859847875,103
18.494140625,23.509765625,37.001953125,859847875,103
16.9921875,10.009765625,33.001953125,859847875,103
45.5,-12.490234375,33.998046875,859847875,103
49.5,-17.490234375,34.0,859847875,103
-61.5,14.009765625,34.5,859847875,103
-51.0,5.509765625,35.0,859847875,103
-38.5,24.509765625,33.0,859847875,103
44.5,43.509765625,33.5,859847875,103
50.5,-22.490234375,34.0,859847875,103
-61.5,62.009765625,34.5,859847875,103
-50.0,47.509765625,35.0,859847875,103
-43.5,-18.490234375,35.5,859847875,103
-42.0,3.509765625,33.001953125,859847875,103
45.0,-60.490234375,33.5,859847875,103
41.5,13.509765625,0.328125,859847875,103
2.701171875,0.611328125,0.134765625,859847875,103
2.78125,0.44921875,0.13671875,859847875,103
2.77734375,0.642578125,0.138671875,859847875,103
2.859375,0.42578125,0.140625,859847875,103
2.9296875,0.244140625,0.12890625,859847875,103
2.6875,0.064453125,0.130859375,859847875,103
2.732421875,0.130859375,0.1328125,859847875,103
2.76953125,0.205078125,0.134765625,859847875,103
2.794921875,0.35546875,0.13671875,859847875,103
2.830078125,0.3515625,0.138671875,859847875,103
-41.490234375,33.0,3.5,859847875,103
-56.990234375,33.5,3.5,859847875,103
-44.990234375,34.0,3.5,859847875,103
-14.490234375,34.5,3.5,859847875,103
-45.490234375,34.001953125,-4.0,859847875,103
-12.9921875,34.4921875,-1.0,859847875,103
3.509765625,34.498046875,-0.5,859847875,103
20.009765625,34.998046875,-0.5,859847875,103
29.509765625,35.498046875,-0.5,859847875,103
30.009765625,37.998046875,-0.5,859847875,103
1.509765625,38.0,-0.5,859847875,103
-9.490234375,6.498046875,0.0,859847875,103
0.2578125,2.728515625,0.060546875,959220562,105
0.34765625,2.75390625,0.181640625,959220562,105
0.263671875,2.796875,0.28125,959220562,105
0.1796875,2.830078125,0.390625,959220562,105
0.0,2.830078125,0.650390625,959220562,105
0.275390625,2.798828125,0.875,959220562,105
54.341796875,55.509765625,34.0,959220562,105
-61.0,54.009765625,34.5,959220562,105
-55.5,-15.990234375,34.0,959220562,105
-60.0,63.509765625,34.5,959220562,105
-49.5,60.009765625,35.0,959220562,105
-38.0,50.509765625,33.5,959220562,105
48.0,23.009765625,34.498046875,959220562,105
59.5,28.009765625,34.998046875,959220562,105
-56.5,38.009765625,35.498046875,959220562,105
-43.0,-58.490234375,35.998046875,959220562,105
-26.0,45.509765625,33.5,959220562,105
54.0,-52.490234375,34.498046875,959220562,105
-61.5,-12.990234375,34.998046875,959220562,105
-49.0,20.009765625,35.0,959220562,105
-39.5,43.509765625,35.5,959220562,105
-35.5,-2.990234375,36.0,959220562,105
-29.0,-11.490234375,36.0,959220562,105
-29.505859375,-39.9921875,6.494140625,959220562,105
0.435546875,2.6953125,0.529296875,1059706707,107
0.44140625,2.728515625,0.568359375,1059706707,107
-1.4765625,2.77734375,0.16796875,1059706707,107
-1.45703125,2.728515625,0.3125,1059706707,107
-1.4765625,2.765625,0.30859375,1059706707,107
-1.49609375,2.806640625,0.263671875,1059706707,107
-1.4765625,2.748046875,0.431640625,1059706707,107
-0.083984375,0.419921875,-2.625,1059706707,107
0.0,0.673828125,-2.615234375,1059706707,107
0.25,2.63671875,0.228515625,1059706707,107
0.25390625,2.673828125,0.27734375,1059706707,107
0.171875,2.70703125,0.39453125,1059706707,107
2.1484375,0.0,-3.0234375,1059706707,107
2.173828125,0.0,-3.015625,1059706707,107
2.201171875,0.0,-3.015625,1059706707,107
2.333984375,0.0,-3.0859375,1059706707,107
2.36328125,0.0,-3.373046875,1059706707,107
0.33203125,2.634765625,0.130859375,1059706707,107
0.337890625,2.677734375,-0.001953125,1059706707,107
0.427734375,2.693359375,-0.267578125,1059706707,107
0.435546875,2.720703125,-0.380859375,1059706707,107
0.44140625,2.787109375,-0.08984375,1059706707,107
0.357421875,2.83984375,0.10546875,1059706707,107
2.044921875,0.0,-2.8046875,1059706707,107
2.0703125,0.0,-2.845703125,1059706707,107
2.095703125,0.0,-2.884765625,1059706707,107
0.33203125,2.62109375,0.3046875,1059706707,107
0.421875,2.666015625,0.001953125,1059706707,107
0.427734375,2.703125,-0.162109375,1059706707,107
0.435546875,2.740234375,-0.2109375,1059706707,107
0.353515625,2.80078125,-0.0390625,1059706707,107
0.357421875,2.798828125,0.4921875,1059706707,107
0.421875,2.666015625,0.078125,1059706707,107
0.513671875,2.69140625,12656.482421875,1059706707,107
63.0,16.009765625,34.5,1059706707,107
-52.0,36.509765625,33.5,1059706707,107
49.001953125,7.009765625,34.0,1059706707,107
59.501953125,5.009765625,34.5,1059706707,107
-58.498046875,-23.490234375,33.998046875,1059706707,107
49.5,-59.490234375,34.0,1059706707,107
57.001953125,59.009765625,34.5,1059706707,107
-57.0,63.009765625,35.0,1059706707,107
-45.5,48.509765625,33.5,1059706707,107
43.001953125,-37.490234375,34.0,1059706707,107
2.716796875,0.404296875,0.134765625,1059706707,107
2.7578125,0.4140625,0.13671875,1059706707,107
2.810546875,0.419921875,0.126953125,1059706707,107
2.51953125,0.18359375,0.12890625,1059706707,107
2.529296875,0.16796875,0.158203125,1059706707,107
2.486328125,-2.06640625,0.16015625,1059706707,107
2.845703125,-1.662109375,0.162109375,1059706707,107
2.431640625,-2.283203125,0.1640625,1059706707,107
2.470703125,-2.326171875,0.158203125,1059706707,107
2.693359375,-1.826171875,0.16015625,1059706707,107
2.951171875,-1.46484375,0.0234375,1059706707,107
0.416015625,2.615234375,0.240234375,1159142416,109
0.505859375,2.638671875,0.255859375,1159142416,109
0.599609375,2.6484375,0.369140625,1159142416,109
0.521484375,2.73046875,0.1171875,1159142416,109
0.353515625,2.79296875,0.20703125,1159142416,109
0.421875,2.65234375,-0.2734375,1159142416,109
0.341796875,2.7109375,-0.216796875,1159142416,109
0.34765625,2.75390625,-0.177734375,1159142416,109
0.341796875,2.712890625,-0.1796875,1159142416,109
0.34765625,2.75,-0.2265625,1159142416,109
0.58984375,2.62890625,-0.185546875,1159142416,109
0.599609375,2.673828125,0.044921875,1159142416,109
0.6953125,2.693359375,-0.0703125,1159142416,109
0.529296875,2.7734375,0.005859375,1159142416,109
0.498046875,2.611328125,-0.009765625,1159142416,109
0.58984375,2.634765625,0.017578125,1159142416,109
0.685546875,2.63671875,0.296875,1159142416,109
0.521484375,2.724609375,0.201171875,1159142416,109
0.44140625,2.783203125,0.1484375,1159142416,109
0.322265625,2.537109375,0.322265625,1259373791,111
0.328125,2.572265625,0.365234375,1259373791,111
0.498046875,2.609375,-0.099609375,1259373791,111
0.58984375,2.626953125,-0.19140625,1259373791,111
0.599609375,2.669921875,-0.138671875,1259373791,111
0.521484375,2.732421875,-0.03125,1259373791,111
-54.05859375,-0.490234375,32.998046875,1259373791,111
28.0,-23.990234375,33.498046875,1259373791,111
39.001953125,8.009765625,33.5,1259373791,111
49.001953125,12.509765625,34.0,1259373791,111
63.5,10.009765625,34.5,1259373791,111
-51.0,-3.990234375,35.498046875,1259373791,111
-41.0,23.509765625,33.0,1259373791,111
37.001953125,51.509765625,33.5,1259373791,111
47.501953125,47.009765625,34.0,1259373791,111
62.0,40.009765625,34.5,1259373791,111
-54.5,-1.990234375,33.998046875,1259373791,111
48.5,-49.990234375,34.0,1259373791,111
60.0,-56.990234375,33.0,1259373791,111
35.5,-28.990234375,33.5,1259373791,111
49.0,-27.490234375,34.0,1259373791,111
60.0,-32.990234375,33.0,1259373791,111
27.5,29.509765625,33.501953125,1259373791,111
36.5,37.009765625,33.501953125,1259373791,111
47.5,-18.490234375,34.0,1259373791,111
58.0,-19.490234375,34.5,1259373791,111
-57.0,-37.990234375,32.0,1259373791,111
19.5,54.509765625,33.0,1259373791,111
38.501953125,-26.490234375,33.998046875,1259373791,111
44.501953125,48.509765625,34.498046875,1259373791,111
59.001953125,22.509765625,34.5,1259373791,111
0.494140625,-21.0,6.48828125,1259373791,111
0.58984375,2.634765625,-0.009765625,1359300526,113
0.599609375,2.673828125,0.03125,1359300526,113
0.609375,2.71484375,0.03515625,1359300526,113
-1.533203125,2.623046875,0.41796875,1359300526,113
-1.5546875,2.654296875,0.451171875,1359300526,113
-1.4765625,2.74609375,0.44140625,1359300526,113
-40.494140625,41.009765625,33.5,1359300526,113
43.501953125,39.509765625,34.0,1359300526,113
58.001953125,41.509765625,34.5,1359300526,113
-54.5,24.509765625,33.5,1359300526,113
36.001953125,6.009765625,34.001953125,1359300526,113
47.501953125,1.009765625,34.501953125,1359300526,113
62.001953125,-24.490234375,33.5,1359300526,113
48.501953125,25.009765625,34.0,1359300526,113
59.001953125,23.509765625,32.5,1359300526,113
36.0,51.009765625,33.0,1359300526,113
42.0,34.009765625,32.5,1359300526,113
2.61328125,0.361328125,0.12890625,1359300526,113
2.642578125,0.43359375,0.130859375,1359300526,113
2.6796875,0.251953125,0.12890625,1359300526,113
2.646484375,0.33203125,0.130859375,1359300526,113
2.685546875,0.3359375,0.1484375,1359300526,113
2.744140625,0.08984375,0.134765625,1359300526,113
2.7734375,-0.01171875,0.13671875,1359300526,113
2.818359375,0.240234375,0.1484375,1359300526,113
2.775390625,0.337890625,0.150390625,1359300526,113
2.76171875,0.33203125,0.134765625,1359300526,113
0.0,1123.208984375,2.001953125,1359300526,113
-1.4375,2.6953125,0.27734375,1458886131,115
-1.45703125,2.74609375,0.001953125,1458886131,115
0.416015625,2.611328125,0.27734375,1458886131,115
0.337890625,2.654296875,0.3671875,1458886131,115
0.435546875,2.7421875,-0.185546875,1458886131,115
-1.607421875,2.4921875,0.6015625,1458886131,115
0.33203125,2.626953125,0.251953125,1559269103,117
0.421875,2.650390625,0.30078125,1559269103,117
0.341796875,2.705078125,0.275390625,1559269103,117
0.44140625,2.78515625,0.142578125,1559269103,117
0.396484375,2.48828125,0.294921875,1559269103,117
0.416015625,2.603515625,0.34375,1559269103,117
36.921875,-35.990234375,33.5,1559269103,117
48.0,-45.990234375,34.0,1559269103,117
60.5,-62.490234375,34.5,1559269103,117
-57.5,-59.990234375,34.5,1559269103,117
63.0,-4.990234375,37.5,1559269103,117
50.994140625,61.009765625,35.998046875,1559269103,117
-13.5078125,58.0078125,36.498046875,1559269103,117
-2.5078125,-47.4921875,36.998046875,1559269103,117
20.994140625,-47.990234375,37.498046875,1559269103,117
26.9921875,51.509765625,37.998046875,1559269103,117
52.994140625,-45.490234375,38.498046875,1559269103,117
63.494140625,8.009765625,38.5,1559269103,117
57.9921875,37.009765625,35.5,1559269103,117
-25.5078125,-26.4921875,36.498046875,1559269103,117
-0.5078125,2.5078125,36.5,1559269103,117
7.9921875,18.509765625,37.0,1559269103,117
16.9921875,5.009765625,37.5,1559269103,117
40.4921875,-6.490234375,38.498046875,1559269103,117
61.494140625,54.509765625,38.5,1559269103,117
54.4921875,-49.490234375,6.0,1559269103,117
0.408203125,2.57421875,0.25390625,1709501048,120
0.416015625,2.6171875,0.2109375,1709501048,120
0.421875,2.66015625,0.19140625,1709501048,120
0.771484375,2.623046875,0.205078125,1709501048,120
0.6953125,2.6875,0.177734375,1709501048,120
0.79296875,2.705078125,0.140625,1709501048,120
126117.3203125,62.5078125,32.0,1709501048,120
13.0,-19.490234375,32.5,1709501048,120
24.0,-23.990234375,33.0,1709501048,120
34.5,-21.490234375,33.5,1709501048,120
36.001953125,-19.990234375,34.0,1709501048,120
43.001953125,-33.490234375,34.5,1709501048,120
58.001953125,-26.990234375,37.0,1709501048,120
23.4921875,-24.990234375,37.5,1709501048,120
40.4921875,15.509765625,38.0,1709501048,120
34.9921875,5.009765625,32.5,1709501048,120
19.5,18.009765625,33.001953125,1709501048,120
34.5,8.509765625,34.001953125,1709501048,120
39.001953125,18.509765625,34.501953125,1709501048,120
51.001953125,12.009765625,37.001953125,1709501048,120
25.4921875,-38.490234375,37.5,1709501048,120
23.4921875,56.509765625,38.0,1709501048,120
32.4921875,54.509765625,36.5,1709501048,120
17.494140625,45.509765625,37.498046875,1709501048,120
16.9921875,3.509765625,37.5,1709501048,120
17.4921875,-21.990234375,34.0,1709501048,120
59.501953125,-11.990234375,36.498046875,1709501048,120
-16.0078125,2.0078125,36.5,1709501048,120
-8.5078125,33.0078125,37.0,1709501048,120
-1.5078125,61.0078125,33.5,1709501048,120
49.001953125,1.509765625,34.0,1709501048,120
59.501953125,9.009765625,34.5,1709501048,120
-58.498046875,-10.990234375,35.498046875,1709501048,120
-51.5078125,19.0078125,0.3359375,1709501048,120
2.36328125,0.177734375,0.142578125,1709501048,120
2.38671875,0.27734375,0.14453125,1709501048,120
2.416015625,0.3046875,0.130859375,1709501048,120
2.181640625,0.318359375,0.134765625,1709501048,120
2.333984375,0.005859375,0.134765625,1709501048,120
2.185546875,0.970703125,0.13671875,1709501048,120
2.828125,-0.013671875,0.0234375,1709501048,120
0.498046875,2.560546875,0.51171875,1910034934,124
0.505859375,2.599609375,0.525390625,1910034934,124
0.427734375,2.66015625,0.50390625,1910034934,124
-1.5546875,2.671875,0.337890625,1910034934,124
-1.57421875,2.720703125,0.189453125,1910034934,124
-1.5,2.3828125,-0.19921875,1910034934,124
126119.966796875,-3.4921875,38.001953125,1910034934,124
33.9921875,18.509765625,38.501953125,1910034934,124
-63.005859375,-23.990234375,39.0,1910034934,124
62.9921875,-44.990234375,34.5,1910034934,124
-27.505859375,4.0078125,37.0,1910034934,124
-1.5078125,26.0078125,37.501953125,1910034934,124
22.4921875,-59.490234375,38.0,1910034934,124
27.9921875,-33.490234375,38.5,1910034934,124
38.9921875,37.509765625,39.001953125,1910034934,124
50.4921875,27.009765625,36.001953125,1910034934,124
-9.505859375,43.0078125,36.501953125,1910034934,124
2.482421875,0.490234375,0.14453125,1910034934,124
2.4609375,0.45703125,0.146484375,1910034934,124
2.568359375,0.404296875,0.1484375,1910034934,124
2.544921875,0.357421875,0.140625,1910034934,124
2.396484375,0.697265625,0.142578125,1910034934,124
2.39453125,0.6015625,0.14453125,1910034934,124
2.37109375,0.5546875,0.125,1910034934,124
0.45703125,2.544921875,0.126953125,1910034934,124
0.265625,2.61328125,0.12890625,1910034934,124
0.0,2.697265625,0.130859375,1910034934,124
0.40625,12404.310546875,-4.0,1910034934,124
27.009765625,32.5,-4.0,1910034934,124
38.009765625,33.0,-4.0,1910034934,124
54.509765625,33.5,-4.0,1910034934,124
-55.490234375,32.0,-3.5,1910034934,124
-48.490234375,32.5,-3.5,1910034934,124
-28.990234375,0.12890625,-0.013671875,1910034934,124
0.501953125,0.130859375,-0.013671875,1910034934,124
0.59765625,0.119140625,-0.01171875,1910034934,124
0.138671875,0.12109375,-0.01171875,1910034934,124
0.1328125,0.123046875,-0.01171875,1910034934,124
0.162109375,0.126953125,-0.01171875,1910034934,124
0.005859375,0.12890625,-0.01171875,1910034934,124
0.0546875,0.16796875,-0.01171875,1910034934,124
0.4609375,0.169921875,-0.01171875,1910034934,124
0.39453125,0.173828125,-0.01171875,1910034934,124
0.267578125,0.17578125,-0.01171875,1910034934,124
30.5,-2.5,32.998046875,1910034934,124
31.0,-2.5,36.998046875,1910034934,124
31.5,-2.5,20.998046875,1910034934,124
32.0,-2.5,24.998046875,1910034934,124
32.5,-2.5,-45.501953125,1910034934,124
33.0,-2.5,-19.501953125,1910034934,124
33.5,-2.5,58.498046875,1910034934,124
43.498046875,-2.5,57.498046875,1910034934,124
44.501953125,-2.5,35.998046875,1910034934,124
32.5,-2.0,41.998046875,1910034934,124
33.0,-2.0,498.29296875,1910034934,124
0.125,-0.005859375,0.130859375,1910034934,124
0.126953125,-0.005859375,0.337890625,1910034934,124
0.12890625,-0.005859375,0.3671875,1910034934,124
0.130859375,-0.005859375,0.158203125,1910034934,124
0.125,-0.00390625,0.10546875,1910034934,124
0.126953125,-0.00390625,0.28125,1910034934,124
0.12890625,-0.00390625,0.3203125,1910034934,124
0.130859375,-0.00390625,0.158203125,1910034934,124
0.0234375,0.0,49.65625,1910034934,124
0.4609375,2.41015625,-0.068359375,2009957940,126
0.46875,2.451171875,-0.0546875,2009957940,126
0.396484375,2.50390625,-0.044921875,2009957940,126
0.572265625,2.541015625,-0.267578125,2009957940,126
0.6640625,2.5625,-0.240234375,2009957940,126
0.58984375,2.623046875,-0.244140625,2009957940,126
126456.62109375,-29.990234375,39.498046875,2009957940,126
-33.505859375,-21.490234375,30.498046875,2009957940,126
-23.5,25.5078125,30.5,2009957940,126
-13.0,29.0078125,31.0,2009957940,126
-3.0,35.5078125,32.0,2009957940,126
14.001953125,-9.490234375,32.998046875,2009957940,126
19.001953125,-17.490234375,33.498046875,2009957940,126
34.501953125,-12.490234375,38.498046875,2009957940,126
60.494140625,-62.990234375,38.5,2009957940,126
-56.005859375,27.509765625,39.0,2009957940,126
-34.005859375,37.009765625,39.5,2009957940,126
-26.005859375,58.509765625,30.0,2009957940,126
-25.5,57.0078125,30.5,2009957940,126
-12.5,-60.4921875,31.0,2009957940,126
-3.0,-55.4921875,32.0,2009957940,126
13.501953125,21.509765625,32.5,2009957940,126
24.001953125,19.009765625,33.0,2009957940,126
38.501953125,26.009765625,37.0,2009957940,126
30.9921875,33.509765625,37.5,2009957940,126
37.4921875,-60.990234375,38.0,2009957940,126
43.9921875,-38.990234375,38.5,2009957940,126
53.4921875,-40.490234375,39.0,2009957940,126
-41.005859375,-20.490234375,32.0,2009957940,126
14.001953125,17.509765625,32.5,2009957940,126
23.001953125,37.009765625,33.0,2009957940,126
33.001953125,43.509765625,33.5,2009957940,126
44.001953125,34.509765625,37.0,2009957940,126
8.4921875,-23.490234375,0.146484375,2009957940,126
2.56640625,0.41796875,0.1484375,2009957940,126
2.595703125,0.443359375,0.123046875,2009957940,126
2.47265625,-0.013671875,0.125,2009957940,126
2.509765625,-0.111328125,0.126953125,2009957940,126
2.568359375,-0.169921875,0.12890625,2009957940,126
2.625,0.376953125,0.130859375,2009957940,126
2.658203125,0.291015625,0.1328125,2009957940,126
2.72265625,0.236328125,0.171875,2009957940,126
2.779296875,0.412109375,0.173828125,2009957940,126
2.802734375,0.46484375,0.123046875,2009957940,126
36.0078125,32.0,2.5,2009957940,126
43.009765625,32.5,2.5,2009957940,126
42.509765625,33.0,2.5,2009957940,126
34.509765625,33.5,2.5,2009957940,126
-19.990234375,37.5,2.5,2009957940,126
31.5,44.48828125,2.5,2009957940,126
34.009765625,44.501953125,2.5,2009957940,126
36.509765625,32.001953125,3.0,2009957940,126
-43.990234375,32.5,3.0,2009957940,126
-28.490234375,33.0,3.0,2009957940,126
-5.490234375,37.5,3.0,2009957940,126
-2.69921875,0.1328125,-0.00390625,2009957940,126
-0.513671875,0.134765625,-0.00390625,2009957940,126
-0.505859375,0.1328125,-0.001953125,2009957940,126
-0.353515625,0.134765625,-0.001953125,2009957940,126
-0.33984375,0.150390625,0.001953125,2009957940,126
-0.025390625,0.15234375,0.001953125,2009957940,126
0.04296875,0.154296875,0.001953125,2009957940,126
0.158203125,0.150390625,0.00390625,2009957940,126
0.142578125,0.0234375,0.0,2009957940,126
0.58984375,2.609375,-0.35546875,2109992331,128
0.599609375,2.65234375,-0.345703125,2109992331,128
0.6953125,2.673828125,-0.326171875,2109992331,128
-1.5,2.34765625,0.45703125,2109992331,128
-1.359375,2.775390625,0.337890625,2109992331,128
0.498046875,2.556640625,-0.53515625,2109992331,128
23.921875,-32.490234375,33.99609375,2109992331,128
35.001953125,-10.990234375,34.49609375,2109992331,128
41.001953125,-55.990234375,37.498046875,2109992331,128
30.4921875,-36.490234375,37.998046875,2109992331,128
40.4921875,-2.990234375,32.998046875,2109992331,128
22.5,38.509765625,33.498046875,2109992331,128
34.501953125,52.509765625,33.998046875,2109992331,128
48.501953125,-26.490234375,34.498046875,2109992331,128
59.501953125,1.509765625,34.5,2109992331,128
-53.0,50.009765625,32.5,2109992331,128
22.501953125,-49.990234375,33.498046875,2109992331,128
38.501953125,-14.990234375,33.998046875,2109992331,128
44.001953125,32.509765625,34.0,2109992331,128
57.501953125,50.509765625,34.5,2109992331,128
-59.5,-41.990234375,39.5,2109992331,128
0.0078125,32.0,40.48828125,2109992331,128
0.0078125,-32.0,41.48828125,2109992331,128
0.0078125,56.5,31.486328125,2109992331,128
1.0,26.009765625,31.5,2109992331,128
11.0,31.509765625,32.0,2109992331,128
24.0,34.509765625,32.5,2109992331,128
28.5,-21.490234375,49.93359375,2109992331,128
2.6328125,0.060546875,0.130859375,2109992331,128
2.650390625,0.357421875,0.1328125,2109992331,128
2.703125,0.490234375,0.134765625,2109992331,128
2.72265625,0.6015625,0.154296875,2109992331,128
0.0,-2.74609375,0.15625,2109992331,128
0.0,12403.306640625,2.5,2109992331,128
-50.4921875,31.5,2.5,2109992331,128
-53.490234375,32.0,2.5,2109992331,128
-43.990234375,38.5,2.5,2109992331,128
36.5,38.48828125,3.0,2109992331,128
-51.5,38.98828125,3.0,2109992331,128
-47.5,39.48828125,3.0,2109992331,128
-49.0,38.98828125,3.5,2109992331,128
18.5,39.490234375,3.5,2109992331,128
-20.5,35.98828125,-1.5,2109992331,128
38.009765625,36.0,-1.5,2109992331,128
0.267578125,0.142578125,-0.005859375,2109992331,128
0.220703125,0.14453125,-0.005859375,2109992331,128
0.359375,0.146484375,-0.005859375,2109992331,128
0.3046875,0.1484375,-0.005859375,2109992331,128
0.107421875,0.150390625,-0.005859375,2109992331,128
0.0859375,0.138671875,-0.00390625,2109992331,128
0.3046875,0.140625,-0.00390625,2109992331,128
0.396484375,0.142578125,-0.00390625,2109992331,128
0.451171875,0.14453125,-0.00390625,2109992331,128
0.70703125,0.150390625,-0.00390625,2109992331,128
0.7890625,0.1328125,-0.001953125,2109992331,128
0.115234375,0.134765625,-0.001953125,2109992331,128
0.19140625,0.13671875,-0.001953125,2109992331,128
0.060546875,0.146484375,-0.001953125,2109992331,128
0.111328125,0.1484375,-0.001953125,2109992331,128
0.279296875,0.150390625,-0.001953125,2109992331,128
0.51953125,0.154296875,-0.001953125,2109992331,128
-0.115234375,0.1328125,0.0,2109992331,128
0.037109375,0.134765625,0.0,2109992331,128
-0.419921875,0.0234375,0.0,2109992331,128
0.498046875,2.609375,-0.091796875,2209523661,130
0.505859375,2.642578125,0.2265625,2209523661,130
0.513671875,2.669921875,0.341796875,2209523661,130
0.521484375,2.703125,0.400390625,2209523661,130
0.529296875,2.73828125,0.4296875,2209523661,130
0.447265625,2.796875,0.416015625,2209523661,130
12491.466796875,41.009765625,35.001953125,2209523661,130
-45.0,42.509765625,36.5,2209523661,130
27.494140625,-22.490234375,37.0,2209523661,130
37.994140625,-29.490234375,37.5,2209523661,130
32.9921875,-25.990234375,36.0,2209523661,130
18.994140625,33.509765625,36.501953125,2209523661,130
19.494140625,18.509765625,37.001953125,2209523661,130
30.494140625,11.509765625,36.501953125,2209523661,130
17.494140625,45.509765625,37.498046875,2209523661,130
14.4921875,-59.990234375,37.998046875,2209523661,130
24.9921875,-31.990234375,38.498046875,2209523661,130
34.4921875,-25.990234375,38.998046875,2209523661,130
43.4921875,-10.490234375,36.498046875,2209523661,130
-23.5,26.509765625,36.5,2209523661,130
-11.0,46.009765625,37.0,2209523661,130
14.4921875,-23.490234375,37.99609375,2209523661,130
34.9921875,41.509765625,38.498046875,2209523661,130
47.9921875,-51.990234375,38.998046875,2209523661,130
42.9921875,-29.990234375,32.998046875,2209523661,130
22.501953125,-46.990234375,33.498046875,2209523661,130
34.501953125,-6.490234375,33.998046875,2209523661,130
44.501953125,11.509765625,34.0,2209523661,130
54.501953125,22.509765625,34.5,2209523661,130
-60.498046875,59.509765625,35.0,2209523661,130
-12.505859375,28.0078125,36.498046875,2209523661,130
-21.0,43.509765625,32.5,2209523661,130
22.001953125,-50.990234375,33.498046875,2209523661,130
34.501953125,11.509765625,0.130859375,2209523661,130
2.685546875,0.181640625,0.1328125,2209523661,130
2.72265625,0.234375,0.134765625,2209523661,130
2.7578125,0.275390625,0.13671875,2209523661,130
2.8046875,0.369140625,0.13671875,2209523661,130
2.40234375,-0.615234375,0.142578125,2209523661,130
2.349609375,-1.197265625,0.14453125,2209523661,130
2.9609375,0.5,0.134765625,2209523661,130
2.314453125,-0.9296875,0.13671875,2209523661,130
2.783203125,0.498046875,0.13671875,2209523661,130
2.375,1143.283203125,2.001953125,2209523661,130
0.498046875,2.607421875,0.146484375,2309793272,132
0.505859375,2.638671875,0.26171875,2309793272,132
0.513671875,2.666015625,0.3671875,2309793272,132
0.435546875,2.689453125,0.5625,2309793272,132
0.44140625,2.69921875,0.6953125,2309793272,132
-1.703125,2.4296875,0.599609375,2309793272,132
126110.7734375,57.5078125,38.001953125,2309793272,132
13.4921875,39.509765625,33.001953125,2309793272,132
29.501953125,-45.490234375,33.5,2309793272,132
37.001953125,-25.990234375,34.0,2309793272,132
42.001953125,4.509765625,33.001953125,2309793272,132
27.501953125,-32.490234375,33.5,2309793272,132
36.001953125,-18.990234375,36.5,2309793272,132
0.4921875,-36.0,36.48828125,2309793272,132
0.4921875,1.5,36.990234375,2309793272,132
0.4921875,-26.0,36.98828125,2309793272,132
0.4921875,-28.0,33.98828125,2309793272,132
49.001953125,-1.490234375,34.498046875,2309793272,132
63.5,4.009765625,34.5,2309793272,132
-51.5,23.009765625,35.0,2309793272,132
-41.0,17.009765625,35.5,2309793272,132
-34.0,22.509765625,33.0,2309793272,132
39.5,-63.490234375,33.5,2309793272,132
49.5,-58.990234375,34.0,2309793272,132
58.0,-39.490234375,35.0,2309793272,132
-44.5,34.009765625,35.5,2309793272,132
-35.5,52.509765625,31.5,2309793272,132
10.5,42.509765625,0.125,2309793272,132
2.58984375,0.1875,0.126953125,2309793272,132
2.623046875,-0.119140625,0.12890625,2309793272,132
2.66015625,0.181640625,0.130859375,2309793272,132
2.6796875,0.3828125,0.1328125,2309793272,132
2.70703125,0.466796875,0.12890625,2309793272,132
2.533203125,12733.8515625,-1.5,2309793272,132
-8.494140625,34.005859375,-1.5,2309793272,132
-15.490234375,34.5,-1.5,2309793272,132
38.009765625,32.0,-1.0,2309793272,132
32.009765625,32.998046875,-1.0,2309793272,132
-58.990234375,33.498046875,-1.0,2309793272,132
-36.990234375,33.998046875,-1.0,2309793272,132
-20.490234375,34.498046875,-1.0,2309793272,132
9.009765625,34.5,-1.0,2309793272,132
54.509765625,32.0,-0.5,2309793272,132
-29.490234375,32.998046875,-0.5,2309793272,132
-5.990234375,33.498046875,-0.5,2309793272,132
11.509765625,33.5,-0.5,2309793272,132
33.509765625,34.0,-0.5,2309793272,132
62.509765625,34.5,-0.5,2309793272,132
-17.990234375,37.0,-0.5,2309793272,132
-53.9921875,37.5,-0.5,2309793272,132
-3.9921875,38.0,-0.5,2309793272,132
7.009765625,36.501953125,2.5,2309793272,132
-16.490234375,36.0,3.0,2309793272,132
12.509765625,36.501953125,3.0,2309793272,132
-1.990234375,36.5,3.5,2309793272,132
-46.990234375,33.0,-1.5,2309793272,132
-31.498046875,33.5078125,-1.5,2309793272,132
7.501953125,6.009765625,0.0,2309793272,132
0.474609375,2.490234375,-0.080078125,2409212073,134
0.482421875,2.53125,-0.02734375,2409212073,134
0.408203125,2.583984375,-0.083984375,2409212073,134
0.396484375,2.501953125,0.138671875,2409212073,134
0.40234375,2.541015625,0.146484375,2409212073,134
0.328125,2.58203125,0.283203125,2409212073,134
51.841796875,-46.490234375,34.0,2409212073,134
61.0,57.509765625,34.5,2409212073,134
-60.498046875,55.009765625,31.0,2409212073,134
-3.5,-50.4921875,31.5,2409212073,134
6.0,-43.490234375,34.0,2409212073,134
-63.0,43.509765625,34.0,2409212073,134
62.0,-28.490234375,33.5,2409212073,134
48.501953125,26.009765625,34.0,2409212073,134
63.5,8.009765625,34.5,2409212073,134
-54.5,17.009765625,35.0,2409212073,134
-44.5,28.009765625,32.5,2409212073,134
2.568359375,-0.36328125,0.12890625,2409212073,134
2.634765625,-0.0546875,0.130859375,2409212073,134
2.673828125,-0.0078125,0.1328125,2409212073,134
2.701171875,-0.259765625,0.134765625,2409212073,134
2.791015625,0.234375,0.13671875,2409212073,134
2.830078125,0.259765625,0.0234375,2409212073,134
0.408203125,2.5625,0.3515625,2559597199,137
0.416015625,2.587890625,0.443359375,2559597199,137
0.337890625,2.625,0.537109375,2559597199,137
0.341796875,2.662109375,0.556640625,2559597199,137
-1.513671875,2.61328125,0.2109375,2559597199,137
-1.533203125,2.638671875,0.31640625,2559597199,137
19.916015625,3.009765625,33.001953125,2559597199,137
28.0,26.509765625,37.501953125,2559597199,137
-8.5078125,25.0078125,38.001953125,2559597199,137
-12.5078125,2.5078125,37.001953125,2559597199,137
44.994140625,10.009765625,37.5,2559597199,137
54.494140625,-2.490234375,30.998046875,2559597199,137
-6.5,19.0078125,31.0,2559597199,137
3.5,23.509765625,31.5,2559597199,137
18.0,28.509765625,32.0,2559597199,137
17.0,-43.990234375,32.998046875,2559597199,137
27.5,-38.990234375,33.498046875,2559597199,137
38.001953125,-33.490234375,34.498046875,2559597199,137
-61.5,7.009765625,34.5,2559597199,137
-51.5,16.009765625,38.0,2559597199,137
60.994140625,60.009765625,38.5,2559597199,137
-45.005859375,62.009765625,31.0,2559597199,137
3.0,-62.990234375,31.5,2559597199,137
8.0,-59.990234375,32.0,2559597199,137
14.001953125,1.009765625,32.5,2559597199,137
28.5,13.009765625,33.0,2559597199,137
37.501953125,44.009765625,33.5,2559597199,137
52.0,36.509765625,34.0,2559597199,137
-64.0,61.009765625,34.5,2559597199,137
-54.5,-58.990234375,37.5,2559597199,137
53.994140625,10.509765625,38.0,2559597199,137
58.494140625,-44.490234375,38.5,2559597199,137
-63.505859375,-18.990234375,31.5,2559597199,137
4.5,-59.490234375,0.125,2559597199,137
2.548828125,0.15625,0.126953125,2559597199,137
2.599609375,0.25390625,0.12890625,2559597199,137
2.625,0.380859375,0.130859375,2559597199,137
2.693359375,0.369140625,0.1328125,2559597199,137
2.732421875,0.447265625,0.134765625,2559597199,137
2.7578125,0.48046875,0.14453125,2559597199,137
2.673828125,-0.0234375,0.146484375,2559597199,137
2.65234375,0.158203125,0.0234375,2559597199,137
0.482421875,2.53125,0.0078125,2659221049,139
0.408203125,2.583984375,0.068359375,2659221049,139
0.416015625,2.623046875,0.115234375,2659221049,139
0.421875,2.662109375,0.16796875,2659221049,139
0.408203125,2.580078125,0.16015625,2659221049,139
0.33203125,2.619140625,0.3125,2659221049,139
0.25390625,2.63671875,0.52734375,2659221049,139
0.2578125,2.671875,0.5546875,2659221049,139
0.26171875,2.708984375,0.572265625,2659221049,139
0.25390625,2.607421875,0.654296875,2659221049,139
0.2578125,2.626953125,0.740234375,2659221049,139
0.408203125,2.544921875,-0.455078125,2659221049,139
0.482421875,2.513671875,-0.30078125,2659221049,139
0.490234375,2.556640625,-0.275390625,2659221049,139
0.416015625,2.619140625,-0.201171875,2659221049,139
0.421875,2.666015625,-0.08984375,2659221049,139
0.427734375,2.70703125,-0.041015625,2659221049,139
0.482421875,2.52734375,-0.154296875,2659221049,139
0.490234375,2.568359375,-0.109375,2659221049,139
0.498046875,2.611328125,-0.048828125,2659221049,139
0.421875,2.666015625,0.068359375,2659221049,139
0.427734375,2.703125,0.1328125,2659221049,139
0.435546875,2.74609375,0.111328125,2659221049,139
-1.09765625,0.0,-2.548828125,2659221049,139
0.498046875,2.60546875,-0.19140625,2759523346,141
0.505859375,2.650390625,0.072265625,2759523346,141
0.427734375,2.703125,0.14453125,2759523346,141
0.435546875,2.74609375,0.078125,2759523346,141
0.44140625,2.787109375,0.07421875,2759523346,141
0.572265625,2.5546875,0.068359375,2759523346,141
-53.91796875,14.509765625,33.0,2759523346,141
33.501953125,31.509765625,33.5,2759523346,141
46.501953125,61.509765625,34.0,2759523346,141
57.501953125,55.509765625,34.5,2759523346,141
-56.5,56.509765625,32.0,2759523346,141
15.5,61.509765625,32.5,2759523346,141
22.001953125,55.009765625,33.0,2759523346,141
35.501953125,-58.490234375,33.5,2759523346,141
42.501953125,-32.990234375,34.0,2759523346,141
48.5,16.509765625,32.001953125,2759523346,141
15.0,62.509765625,32.998046875,2759523346,141
14.0,11.509765625,33.001953125,2759523346,141
30.001953125,-17.990234375,33.5,2759523346,141
40.001953125,-16.990234375,34.0,2759523346,141
33.001953125,44.509765625,36.001953125,2759523346,141
0.005859375,-46.5,31.509765625,2759523346,141
4.0,54.009765625,32.498046875,2759523346,141
10.501953125,61.509765625,32.998046875,2759523346,141
26.0,-60.990234375,33.498046875,2759523346,141
45.5,4.009765625,33.5,2759523346,141
56.0,2.509765625,32.0,2759523346,141
17.0,-38.990234375,49.931640625,2759523346,141
2.623046875,-0.109375,0.130859375,2759523346,141
2.71484375,-0.169921875,0.134765625,2759523346,141
2.810546875,0.189453125,0.14453125,2759523346,141
2.4921875,0.2265625,0.12890625,2759523346,141
2.669921875,0.22265625,0.130859375,2759523346,141
2.69921875,34.3359375,-0.5,2759523346,141
49.509765625,36.5,-0.5,2759523346,141
-52.9921875,37.001953125,-0.5,2759523346,141
-31.990234375,37.5,-0.5,2759523346,141
-57.490234375,34.0,1.5,2759523346,141
-39.4921875,6.001953125,0.0,2759523346,141
0.328125,2.572265625,0.359375,2909581537,144
0.416015625,2.6171875,0.212890625,2909581537,144
0.505859375,2.638671875,0.263671875,2909581537,144
0.513671875,2.66796875,0.353515625,2909581537,144
0.435546875,2.712890625,0.4375,2909581537,144
0.44140625,2.755859375,0.41796875,2909581537,144
-48.642578125,-17.490234375,35.5,2909581537,144
-32.0,51.009765625,33.5,2909581537,144
52.5,29.509765625,34.0,2909581537,144
63.0,23.009765625,34.5,2909581537,144
-55.0,28.509765625,35.5,2909581537,144
0.494140625,58.009765625,36.498046875,2909581537,144
11.994140625,-43.490234375,36.998046875,2909581537,144
35.494140625,-21.490234375,37.498046875,2909581537,144
29.9921875,46.009765625,37.5,2909581537,144
38.4921875,53.509765625,36.0,2909581537,144
12.994140625,-18.990234375,36.998046875,2909581537,144
2.625,0.265625,0.14453125,2909581537,144
2.587890625,0.416015625,0.150390625,2909581537,144
2.73046875,0.537109375,0.126953125,2909581537,144
2.55859375,-0.525390625,0.12890625,2909581537,144
2.619140625,-0.5,0.126953125,2909581537,144
2.576171875,-0.427734375,0.12890625,2909581537,144
2.62109375,-0.40234375,0.130859375,2909581537,144
2.689453125,-0.302734375,0.126953125,2909581537,144
2.578125,-0.419921875,0.12890625,2909581537,144
2.62109375,-0.404296875,0.130859375,2909581537,144
2.65234375,12655.037109375,-1.5,2909581537,144
57.009765625,31.998046875,-1.0,2909581537,144
-51.490234375,33.0,-1.0,2909581537,144
-16.490234375,33.998046875,-1.0,2909581537,144
6.509765625,34.0,-1.0,2909581537,144
24.009765625,34.5,-1.0,2909581537,144
30.009765625,0.126953125,-0.001953125,2909581537,144
0.015625,0.12890625,-0.001953125,2909581537,144
0.091796875,0.130859375,-0.001953125,2909581537,144
0.166015625,0.1328125,-0.001953125,2909581537,144
0.208984375,0.134765625,-0.001953125,2909581537,144
0.2109375,0.13671875,-0.001953125,2909581537,144
0.236328125,0.138671875,-0.001953125,2909581537,144
0.1171875,0.13671875,0.0,2909581537,144
1.751953125,0.138671875,0.0,2909581537,144
0.994140625,0.134765625,0.001953125,2909581537,144
1.361328125,0.138671875,0.001953125,2909581537,144
35.001953125,-0.5,24.998046875,2909581537,144
6.005859375,0.0,40.0,2909581537,144
0.572265625,2.548828125,0.166015625,3009878904,146
0.58203125,2.568359375,0.369140625,3009878904,146
0.171875,2.71875,-0.306640625,3009878904,146
-1.4921875,2.5859375,-0.05859375,3009878904,146
-1.607421875,2.5625,0.103515625,3009878904,146
0.08203125,1.72265625,-1.96875,3009878904,146
1.5,-48.994140625,33.490234375,3009878904,146
-4.0,62.50390625,33.990234375,3009878904,146
22.5,-59.494140625,36.990234375,3009878904,146
6.9921875,36.009765625,37.0,3009878904,146
-4.5078125,-41.4921875,37.5,3009878904,146
-13.5078125,-39.9921875,31.5,3009878904,146
38.0,51.00390625,32.490234375,3009878904,146
-49.0,61.00390625,32.990234375,3009878904,146
-16.0,-60.49609375,33.490234375,3009878904,146
21.0,-47.994140625,31.990234375,3009878904,146
53.0,6.001953125,32.490234375,3009878904,146
43.0,40.50390625,32.990234375,3009878904,146
-33.5,57.00390625,30.490234375,3009878904,146
-42.0,49.501953125,30.990234375,3009878904,146
-39.5,-7.5,31.0078125,3009878904,146
27.0,-55.99609375,30.5078125,3009878904,146
-35.0,8.5,31.490234375,3009878904,146
50.0,60.50390625,31.0078125,3009878904,146
-19.5,-19.4921875,31.99609375,3009878904,146
6.5,46.509765625,32.498046875,3009878904,146
18.0,-10.990234375,32.998046875,3009878904,146
28.5,6.509765625,33.0,3009878904,146
39.001953125,12.509765625,31.0,3009878904,146
-13.5,10.0078125,31.998046875,3009878904,146
-1.5,18.5078125,32.498046875,3009878904,146
9.5,20.509765625,32.998046875,3009878904,146
20.5,25.509765625,31.998046875,3009878904,146
6.0,-49.990234375,49.9296875,3009878904,146
2.568359375,-0.134765625,0.126953125,3009878904,146
2.609375,-0.111328125,0.12890625,3009878904,146
2.666015625,-0.06640625,0.123046875,3009878904,146
2.513671875,-0.05078125,0.125,3009878904,146
2.572265625,-0.021484375,0.126953125,3009878904,146
2.611328125,-0.005859375,0.12890625,3009878904,146
2.65234375,0.00390625,0.130859375,3009878904,146
2.70703125,-0.064453125,0.125,3009878904,146
2.5703125,-0.0625,0.126953125,3009878904,146
2.611328125,-0.0703125,0.12890625,3009878904,146
-48.990234375,33.998046875,-1.5,3009878904,146
-50.490234375,34.498046875,-1.5,3009878904,146
-6.490234375,32.498046875,-1.0,3009878904,146
-45.490234375,32.998046875,-1.0,3009878904,146
55.509765625,33.498046875,-1.0,3009878904,146
56.509765625,33.998046875,-1.0,3009878904,146
9.009765625,34.0,-1.0,3009878904,146
-8.490234375,32.998046875,-0.5,3009878904,146
41.005859375,33.4921875,-0.5,3009878904,146
-26.994140625,33.505859375,-0.5,3009878904,146
54.009765625,34.0,-0.5,3009878904,146
-0.0234375,0.126953125,0.001953125,3009878904,146
0.4140625,0.12890625,0.001953125,3009878904,146
0.478515625,0.130859375,0.001953125,3009878904,146
0.365234375,0.123046875,0.00390625,3009878904,146
0.388671875,0.125,0.00390625,3009878904,146
0.353515625,0.126953125,0.00390625,3009878904,146
0.4296875,0.12890625,0.00390625,3009878904,146
0.501953125,0.123046875,0.005859375,3009878904,146
0.25390625,0.0234375,0.0,3009878904,146
0.51953125,2.3125,-0.12890625,3109651699,148
0.52734375,2.34765625,-0.193359375,3109651699,148
0.537109375,2.388671875,-0.173828125,3109651699,148
0.544921875,2.42578125,-0.212890625,3109651699,148
0.5546875,2.4609375,-0.2578125,3109651699,148
0.482421875,2.5234375,-0.193359375,3109651699,148
-44.5546875,40.5078125,29.5,3109651699,148
-34.5,37.5078125,30.0,3109651699,148
-27.998046875,34.5078125,30.5,3109651699,148
-13.0,-18.4921875,31.498046875,3109651699,148
-7.998046875,-41.9921875,31.998046875,3109651699,148
7.5,-31.490234375,27.998046875,3109651699,148
56.0,30.5078125,28.5,3109651699,148
-60.0,-42.4921875,29.0,3109651699,148
-53.498046875,-42.4921875,29.5,3109651699,148
-40.998046875,-59.9921875,30.0,3109651699,148
-35.998046875,-56.4921875,30.5,3109651699,148
-21.498046875,10.5078125,31.0,3109651699,148
-6.498046875,2.0078125,27.0,3109651699,148
42.5,31.0078125,27.5,3109651699,148
56.0,35.0078125,28.0,3109651699,148
-62.0,40.5078125,28.5,3109651699,148
-57.5,-35.4921875,29.0,3109651699,148
-55.998046875,-28.4921875,29.5,3109651699,148
-42.498046875,-47.4921875,30.0,3109651699,148
-30.998046875,-58.9921875,30.5,3109651699,148
-21.498046875,-51.9921875,31.0,3109651699,148
-13.498046875,-34.9921875,0.146484375,3109651699,148
2.58984375,-0.220703125,0.1484375,3109651699,148
2.6328125,0.0703125,0.10546875,3109651699,148
2.17578125,0.15625,0.107421875,3109651699,148
2.21484375,0.171875,0.109375,3109651699,148
2.251953125,0.2109375,0.111328125,3109651699,148
2.27734375,29.345703125,2.0,3109651699,148
-10.4921875,29.5,2.0,3109651699,148
-29.9921875,30.0,2.0,3109651699,148
-40.4921875,30.5,2.0,3109651699,148
-29.9921875,37.5,2.0,3109651699,148
-14.490234375,38.498046875,2.0,3109651699,148
29.009765625,27.5,2.5,3109651699,148
62.5078125,28.0,2.5,3109651699,148
-54.4921875,29.5,2.5,3109651699,148
-47.9921875,30.0,2.5,3109651699,148
-39.9921875,30.0,-1.5,3109651699,148
34.0078125,30.0,-1.0,3109651699,148
58.5078125,6.0,0.0,3109651699,148
0.234375,1.857421875,0.1875,3260036405,151
0.1796875,1.91015625,0.11328125,3260036405,151
0.18359375,1.955078125,0.0234375,3260036405,151
0.3828125,2.0078125,0.087890625,3260036405,151
0.390625,2.0390625,0.19921875,3260036405,151
0.3984375,2.07421875,0.24609375,3260036405,151
0.40625,2.09765625,0.3671875,3260036405,151
0.345703125,2.173828125,0.197265625,3260036405,151
0.326171875,2.046875,0.232421875,3260036405,151
0.33203125,2.08984375,0.212890625,3260036405,151
2.146484375,0.0,2.837890625,3260036405,151
0.3203125,1.982421875,0.392578125,3260036405,151
0.326171875,2.03515625,0.326171875,3260036405,151
0.33203125,2.072265625,0.34375,3260036405,151
0.337890625,2.099609375,0.419921875,3260036405,151
2.146484375,0.0,2.90234375,3260036405,151
0.3203125,1.966796875,0.45703125,3260036405,151
0.326171875,2.0234375,0.388671875,3260036405,151
0.33203125,2.06640625,0.380859375,3260036405,151
0.337890625,2.1015625,0.408203125,3260036405,151
0.345703125,2.1328125,0.458984375,3260036405,151
0.3515625,2.20703125,0.26171875,3260036405,151
0.3203125,1.9375,0.57421875,3260036405,151
0.326171875,2.005859375,0.470703125,3260036405,151
0.33203125,2.052734375,0.4453125,3260036405,151
0.271484375,2.09765625,0.4765625,3260036405,151
0.275390625,2.083984375,0.67578125,3260036405,151
0.3515625,2.173828125,25.9609375,3260036405,151
-2.5,9.005859375,26.001953125,3260036405,151
19.0,-27.9921875,26.5,3260036405,151
36.0,54.5078125,27.0,3260036405,151
50.0,-30.4921875,26.498046875,3260036405,151
23.0,-56.9921875,26.998046875,3260036405,151
19.001953125,40.0078125,0.10546875,3260036405,151
1.21484375,-1.84375,0.1015625,3260036405,151
2.076171875,-0.0390625,0.103515625,3260036405,151
2.115234375,0.03515625,0.08984375,3260036405,151
0.0,-1.869140625,0.091796875,3260036405,151
0.0,-1.833984375,0.09375,3260036405,151
0.30859375,-1.83984375,0.103515625,3260036405,151
2.1640625,-0.025390625,0.10546875,3260036405,151
2.203125,-0.068359375,0.08984375,3260036405,151
0.0,-1.818359375,0.091796875,3260036405,151
0.0,-1.810546875,0.09375,3260036405,151
49.5,24.9921875,-3.0,3260036405,151
36.5,26.4921875,-3.0,3260036405,151
43.5078125,26.5,-3.0,3260036405,151
39.5078125,27.0,-3.0,3260036405,151
48.5078125,27.5,-3.0,3260036405,151
63.0078125,23.0,-2.5,3260036405,151
