-0.541015625,1.84375,0.0703125,1782517118,114
-0.552734375,1.880859375,0.12109375,1782517118,114
-0.626953125,1.900390625,0.1328125,1782517118,114
-0.638671875,1.9375,0.134765625,1782517118,114
-0.65234375,1.966796875,0.248046875,1782517118,114
-0.474609375,2.099609375,-0.26171875,1782517118,114
-0.689453125,2.34375,0.234375,1782517118,114
-0.6015625,1.802734375,0.2890625,1782517118,114
-0.552734375,1.861328125,0.29296875,1782517118,114
-0.626953125,1.880859375,0.296875,1782517118,114
-0.638671875,1.919921875,0.294921875,1782517118,114
-0.65234375,1.9609375,0.28125,1782517118,114
-0.6640625,1.986328125,0.37109375,1782517118,114
-0.603515625,2.291015625,0.462890625,1782517118,114
-0.689453125,2.318359375,0.419921875,1782517118,114
-0.61328125,1.783203125,0.544921875,1782517118,114
-0.689453125,1.8203125,0.482421875,1782517118,114
-0.576171875,1.9296875,0.357421875,1782517118,114
-0.5859375,1.9765625,0.318359375,1782517118,114
-0.59765625,2.017578125,0.3125,1782517118,114
-0.8125,1.99609375,0.2265625,1782517118,114
-0.759765625,2.041015625,0.375,1782517118,114
-0.541015625,1.830078125,0.234375,1782517118,114
-0.552734375,1.8671875,0.255859375,1782517118,114
-0.576171875,1.943359375,0.279296875,1782517118,114
-0.521484375,2.005859375,0.232421875,1782517118,114
-0.59765625,2.021484375,0.279296875,1782517118,114
-0.74609375,2.001953125,0.369140625,1782517118,114
-0.759765625,2.01171875,0.505859375,1782517118,114
-0.576171875,1.9453125,0.265625,1782517118,114
-0.5859375,1.966796875,0.37890625,1782517118,114
-0.59765625,1.99609375,0.427734375,1782517118,114
-0.677734375,2.0078125,0.458984375,1782517118,114
-0.689453125,2.037109375,0.5,1782517118,114
-0.576171875,1.90625,0.466796875,1782517118,114
-0.5859375,1.9375,0.501953125,1782517118,114
-0.6640625,1.95703125,0.505859375,1782517118,114
-0.609375,2.01953125,0.498046875,1782517118,114
-0.62109375,2.064453125,0.482421875,1782517118,114
-0.521484375,1.98828125,0.353515625,1782517118,114
-0.46484375,2.064453125,0.212890625,1782517118,114
-0.54296875,2.09375,0.16015625,1782517118,114
-0.689453125,2.078125,0.29296875,1782517118,114
-0.45703125,2.01171875,0.318359375,1782517118,114
-0.46484375,2.05859375,0.263671875,1782517118,114
-0.474609375,2.103515625,0.232421875,1782517118,114
-0.62109375,2.09375,0.333984375,1782517118,114
-0.5625,1.9765625,0.9140625,1782517118,114
-0.26171875,1.326171875,-1.58984375,1782517118,114
-0.19921875,1.337890625,-1.640625,1782517118,114
-0.203125,1.359375,-1.677734375,1782517118,114
-0.275390625,1.404296875,-1.681640625,1782517118,114
-0.1953125,1.359375,-1.5703125,1782517118,114
-0.19921875,1.453125,-1.5390625,1782517118,114
-0.203125,1.515625,-1.537109375,1782517118,114
-0.138671875,1.609375,-1.505859375,1782517118,114
-0.28125,1.763671875,-1.369140625,1782517118,114
-0.203125,1.66796875,-1.37109375,1782517118,114
-0.20703125,1.72265625,-1.3671875,1782517118,114
-1.04296875,1.728515625,0.525390625,1782517118,114
-0.998046875,1.80078125,0.537109375,1782517118,114
-1.015625,1.830078125,0.56640625,1782517118,114
-1.103515625,1.81640625,0.599609375,1782517118,114
-0.978515625,1.76171875,0.54296875,1782517118,114
-0.21484375,1.537109375,-1.685546875,1832614492,115
-0.21875,1.52734375,-1.748046875,1832614492,115
-0.22265625,1.552734375,-1.779296875,1832614492,115
-0.21484375,1.560546875,-1.6640625,1832614492,115
-0.21875,1.615234375,-1.66796875,1832614492,115
-0.22265625,1.71875,-1.62109375,1832614492,115
-0.2109375,1.5078125,-1.65625,1832614492,115
-0.21484375,1.66015625,-1.5625,1832614492,115
-0.21875,1.716796875,-1.5625,1832614492,115
-0.6640625,2.009765625,-0.2109375,1832614492,115
-0.677734375,2.05078125,-0.19140625,1832614492,115
-0.759765625,2.0703125,1.361328125,1832614492,115
2.513671875,1.0,32.001953125,1832614492,115
-21.0,0.0,55.5,1832614492,115
0.5,0.0,0.5,1832614492,115
32.0,4.5,31.0,1832614492,115
-12.501953125,-11.9921875,31.5,1832614492,115
-0.501953125,-19.4921875,32.0,1832614492,115
12.998046875,-39.490234375,32.5,1832614492,115
33.498046875,55.509765625,33.0,1832614492,115
43.998046875,-49.490234375,33.5,1832614492,115
49.498046875,-27.990234375,34.0,1832614492,115
56.998046875,-8.490234375,34.5,1832614492,115
56.99609375,8.509765625,31.501953125,1832614492,115
-25.501953125,-49.4921875,32.001953125,1832614492,115
-11.001953125,-59.9921875,32.501953125,1832614492,115
30.498046875,-42.990234375,33.0,1832614492,115
36.498046875,0.509765625,33.501953125,1832614492,115
44.998046875,11.009765625,34.001953125,1832614492,115
52.498046875,14.509765625,34.501953125,1832614492,115
58.498046875,22.009765625,31.501953125,1832614492,115
-55.50390625,15.5078125,32.00390625,1832614492,115
-20.00390625,-46.4921875,32.501953125,1832614492,115
23.498046875,32.5078125,33.005859375,1832614492,115
15.998046875,-46.990234375,33.501953125,1832614492,115
30.498046875,61.509765625,34.001953125,1832614492,115
40.998046875,62.009765625,34.501953125,1832614492,115
43.998046875,-51.490234375,32.001953125,1832614492,115
24.498046875,37.509765625,32.5,1832614492,115
35.998046875,-9.490234375,33.498046875,1832614492,115
36.998046875,16.009765625,32.498046875,1832614492,115
24.498046875,34.509765625,32.5,1832614492,115
33.998046875,51.509765625,33.0,1832614492,115
42.998046875,-62.990234375,33.5,1832614492,115
46.498046875,-28.990234375,34.0,1832614492,115
42.99609375,3.009765625,32.001953125,1832614492,115
22.498046875,63.009765625,32.5,1832614492,115
29.498046875,-34.990234375,33.0,1832614492,115
39.498046875,-30.990234375,33.5,1832614492,115
41.99609375,-26.490234375,33.0,1832614492,115
32.99609375,54.009765625,33.5,1832614492,115
37.49609375,59.009765625,33.0,1832614492,115
23.99609375,-41.490234375,33.5,1832614492,115
25.99609375,-27.490234375,32.5,1832614492,115
-4.001953125,16.501953125,33.490234375,1832614492,115
32.498046875,21.00390625,33.490234375,1832614492,115
-47.501953125,-13.498046875,32.98828125,1832614492,115
0.498046875,-37.0,33.48828125,1832614492,115
-16.501953125,0.501953125,33.990234375,1832614492,115
40.49609375,16.009765625,34.498046875,1832614492,115
46.99609375,-62.490234375,34.5,1832614492,115
54.49609375,-38.490234375,32.5,1832614492,115
31.498046875,40.509765625,33.0,1832614492,115
35.99609375,-57.990234375,33.5,1832614492,115
-0.482421875,2.4921875,0.4453125,971228177,1
-0.490234375,2.54296875,0.37890625,971228177,1
-0.6640625,2.5703125,0.140625,971228177,1
-0.513671875,2.63671875,0.541015625,971228177,1
-0.609375,2.64453125,0.609375,971228177,1
-0.705078125,2.64453125,0.685546875,971228177,1
-0.482421875,2.478515625,0.51171875,971228177,1
-0.572265625,2.515625,0.44921875,971228177,1
-0.6640625,2.546875,0.37109375,971228177,1
-0.599609375,2.548828125,0.806640625,971228177,1
-0.609375,2.53125,0.978515625,971228177,1
-0.482421875,2.53125,-0.001953125,971228177,1
-0.490234375,2.572265625,-0.0078125,971228177,1
-0.58203125,2.58984375,-0.1640625,971228177,1
-0.513671875,2.681640625,0.228515625,971228177,1
-0.521484375,2.71484375,0.3046875,971228177,1
-0.482421875,2.521484375,0.2265625,971228177,1
-0.490234375,2.568359375,0.146484375,971228177,1
-0.58203125,2.59375,-0.0078125,971228177,1
-0.16796875,2.517578125,0.958984375,971228177,1
-0.513671875,2.662109375,0.39453125,971228177,1
-0.609375,2.671875,0.48046875,971228177,1
-0.6171875,2.6953125,0.5703125,971228177,1
-0.759765625,2.583984375,-0.193359375,971228177,1
-0.40234375,2.51953125,0.357421875,1021109201,2
-0.490234375,2.560546875,0.244140625,1021109201,2
-0.58203125,2.587890625,0.1875,1021109201,2
-0.6953125,2.642578125,0.525390625,1021109201,2
-0.482421875,2.4765625,0.5234375,1021109201,2
-0.490234375,2.5390625,0.408203125,1021109201,2
-0.58203125,2.55859375,0.42578125,1021109201,2
-0.609375,2.59375,0.798828125,1021109201,2
-0.490234375,2.5703125,-0.091796875,1021109201,2
-0.58203125,2.591796875,-0.119140625,1021109201,2
-0.40234375,2.5390625,0.16796875,1021109201,2
-0.490234375,2.5703125,0.08203125,1021109201,2
-0.58203125,2.59375,0.056640625,1021109201,2
-0.505859375,2.6484375,0.146484375,1021109201,2
-0.513671875,2.673828125,0.3203125,1021109201,2
-0.609375,2.685546875,0.388671875,1021109201,2
-0.529296875,2.72265625,0.525390625,1021109201,2
-0.572265625,2.525390625,0.37890625,1070951551,3
-0.498046875,2.578125,0.4140625,1070951551,3
-0.505859375,2.5859375,0.58984375,1070951551,3
-0.40234375,2.54296875,0.08984375,1070951551,3
-0.490234375,2.572265625,-0.021484375,1070951551,3
-0.498046875,2.611328125,0.0625,1070951551,3
-0.505859375,2.642578125,0.212890625,1070951551,3
-0.513671875,2.66796875,0.357421875,1070951551,3
-0.609375,2.66796875,0.5,1070951551,3
-0.498046875,2.609375,0.09765625,1120791705,4
-0.537109375,4.23046875,0.5078125,1170937417,5
-0.40625,4.30078125,0.36328125,1170937417,5
-0.736328125,2.51171875,0.04296875,1170937417,5
-0.748046875,2.55078125,0.03515625,1170937417,5
-0.3984375,4.234375,0.04296875,1170937417,5
-0.40234375,4.275390625,0.0703125,1170937417,5
-0.54296875,4.30078125,0.060546875,1170937417,5
-0.546875,4.341796875,-0.083984375,1170937417,5
-0.599609375,2.63671875,0.443359375,1221148730,6
-0.521484375,2.69140625,0.46875,1221148730,6
-0.736328125,2.509765625,0.119140625,1221148730,6
-0.748046875,2.546875,0.16015625,1221148730,6
-0.67578125,2.599609375,0.28125,1221148730,6
-0.685546875,2.5859375,0.591796875,1221148730,6
-0.609375,2.634765625,0.65234375,1221148730,6
-0.3984375,4.220703125,0.361328125,1221148730,6
-0.40234375,4.255859375,0.423828125,1221148730,6
-0.40625,4.30078125,0.380859375,1221148730,6
-0.68359375,4.31640625,0.244140625,1221148730,6
-0.537109375,4.212890625,0.64453125,1221148730,6
-0.736328125,2.51171875,-0.08984375,1221148730,6
-0.6640625,2.57421875,-0.029296875,1221148730,6
-0.609375,2.69140625,0.34765625,1221148730,6
-0.3984375,4.236328125,0.02734375,1221148730,6
-0.40234375,4.275390625,-0.001953125,1221148730,6
-0.40625,4.31640625,-0.068359375,1221148730,6
-0.546875,4.33203125,-0.296875,1221148730,6
