-0.53125,4.193359375,0.486328125,55629120,180
-0.40234375,4.248046875,0.486328125,55629120,180
-0.54296875,4.275390625,0.482421875,55629120,180
-0.3984375,4.234375,-0.076171875,55629120,180
-0.40234375,4.275390625,-0.10546875,55629120,180
-0.54296875,4.30078125,-0.091796875,55629120,180
-0.40234375,4.267578125,0.271484375,105595339,181
-0.54296875,4.30078125,0.126953125,105595339,181
-0.40234375,4.275390625,-0.009765625,105595339,181
-0.54296875,4.30078125,-0.11328125,105595339,181
-0.859375,0.0,0.849609375,455609067,188
-0.900390625,0.0,0.8515625,455609067,188
-0.859375,0.0,-0.849609375,455609067,188
-0.900390625,0.0,-0.900390625,455609067,188
0.912109375,0.0,0.919921875,455609067,188
0.5859375,0.3359375,0.1640625,505748544,189
0.66796875,0.30859375,0.041015625,505748544,189
0.6796875,0.373046875,-0.0546875,505748544,189
0.609375,0.330078125,1.064453125,505748544,189
2.513671875,1.0,-63.998046875,505748544,189
0.5,0.0,-1.5,505748544,189
0.5,0.0,0.5,505748544,189
3.0,4.5,23.5,505748544,189
-34.501953125,-34.994140625,24.0,505748544,189
-23.001953125,-55.494140625,24.5,505748544,189
-12.001953125,-61.494140625,25.0,505748544,189
-1.001953125,26.005859375,24.0,505748544,189
-15.001953125,15.005859375,24.5,505748544,189
-0.3671875,1.91015625,0.263671875,526392046,3
-0.375,1.953125,0.240234375,526392046,3
-0.3671875,1.927734375,0.01953125,526392046,3
-0.375,1.96875,0.041015625,526392046,3
-0.375,1.958984375,0.19140625,576471854,4
-0.3984375,1.904296875,0.857421875,576471854,4
-0.474609375,1.921875,0.8828125,576471854,4
-0.375,1.966796875,-0.080078125,576471854,4
-0.326171875,1.982421875,0.560546875,576471854,4
-0.33203125,2.021484375,0.576171875,576471854,4
-0.40625,2.052734375,0.568359375,576471854,4
-0.4140625,2.08984375,0.5859375,576471854,4
-0.326171875,1.97265625,0.595703125,626536340,5
-0.375,1.943359375,0.322265625,626536340,5
-0.3828125,1.9453125,0.505859375,626536340,5
-0.390625,1.9140625,0.73046875,626536340,5
-0.3984375,1.923828125,0.81640625,626536340,5
-0.18359375,1.935546875,-0.267578125,626536340,5
-0.3125,1.98046875,0.033203125,626536340,5
-0.3203125,2.001953125,0.263671875,626536340,5
-0.326171875,2.0078125,0.46484375,626536340,5
-0.3984375,2.013671875,0.560546875,626536340,5
-0.474609375,2.001953125,0.68359375,626536340,5
-0.375,1.9453125,0.302734375,676571884,6
-0.3203125,1.9296875,0.59765625,676571884,6
-0.61328125,1.755859375,0.626953125,676571884,6
-0.25,1.982421875,0.1484375,676571884,6
-0.3203125,1.966796875,0.4609375,676571884,6
-0.390625,1.904296875,0.755859375,676571884,6
-0.353515625,1.826171875,0.279296875,676571884,6
-0.419921875,1.853515625,0.287109375,676571884,6
-0.490234375,1.8828125,0.26171875,676571884,6
-0.3125,1.978515625,0.08203125,676571884,6
-0.255859375,2.0078125,0.296875,676571884,6
-0.326171875,1.990234375,0.533203125,676571884,6
-0.46484375,1.982421875,0.61328125,676571884,6
-0.123046875,1.92578125,-0.359375,676571884,6
