0.365234375,0.818359375,0.080078125,1181018481,92
0.3828125,0.853515625,0.09765625,1181018481,92
0.39453125,0.80859375,-0.0234375,1181018481,92
0.412109375,0.845703125,-0.013671875,1181018481,92
0.298828125,0.6171875,0.26953125,1381032660,96
0.291015625,0.6640625,0.27734375,1381032660,96
0.275390625,0.607421875,0.3125,1381032660,96
0.291015625,0.642578125,0.326171875,1381032660,96
0.291015625,0.6875,0.21484375,1381032660,96
0.150390625,0.5,0.099609375,1430958347,97
-0.482421875,0.099609375,-0.201171875,1430958347,97
-0.154296875,1.212890625,0.115234375,2974745626,2
-0.197265625,1.2421875,0.154296875,2974745626,2
-0.287109375,1.267578125,0.162109375,2974745626,2
-0.37890625,1.2890625,0.12109375,2974745626,2
-0.478515625,1.287109375,0.22265625,2974745626,2
-0.626953125,1.2109375,0.439453125,2974745626,2
-0.59765625,1.25390625,0.486328125,2974745626,2
-0.568359375,1.318359375,0.478515625,2974745626,2
-0.19140625,1.212890625,-0.001953125,2974745626,2
-0.197265625,1.251953125,0.009765625,2974745626,2
-0.408203125,1.193359375,0.34765625,2974745626,2
-0.505859375,1.181640625,0.4140625,2974745626,2
-0.173828125,1.37890625,0.056640625,2974745626,2
-0.197265625,1.25,0.0703125,2974745626,2
-0.408203125,1.1796875,0.39453125,2974745626,2
-0.609375,1.25,0.0234375,2974745626,2
-0.626953125,1.287109375,0.0546875,2974745626,2
-0.58984375,1.208984375,0.111328125,2974745626,2
-0.609375,1.24609375,0.09765625,2974745626,2
-0.626953125,1.28125,0.1171875,2974745626,2
-0.689453125,1.29296875,0.134765625,2974745626,2
-0.51953125,1.396484375,0.259765625,2974745626,2
-0.630859375,1.39453125,0.2734375,2974745626,2
-0.3671875,1.255859375,0.033203125,2974745626,2
-0.67578125,1.16796875,0.046875,2974745626,2
-0.65234375,1.21875,0.162109375,2974745626,2
-0.671875,1.25,0.1875,2974745626,2
-0.59765625,1.314453125,0.291015625,2974745626,2
-0.615234375,1.34375,0.326171875,2974745626,2
-0.58203125,1.392578125,0.37109375,2974745626,2
-0.357421875,1.21484375,0.056640625,2974745626,2
-0.3671875,1.25390625,0.087890625,2974745626,2
-0.421875,1.27734375,0.123046875,2974745626,2
-0.478515625,1.279296875,0.26171875,2974745626,2
-0.537109375,1.27734375,0.361328125,2974745626,2
-0.59765625,1.27734375,0.42578125,2974745626,2
-0.615234375,1.3046875,0.458984375,2974745626,2
-0.119140625,1.25,0.177734375,2974745626,2
-0.04296875,1.228515625,-0.556640625,2974745626,2
-0.65234375,0.80859375,0.923828125,2974745626,2
-0.205078125,1.29296875,-0.001953125,2974745626,2
-0.19140625,1.169921875,0.318359375,3024740946,3
-0.197265625,1.20703125,0.337890625,3024740946,3
-0.328125,1.224609375,0.32421875,3024740946,3
-0.548828125,1.2109375,0.232421875,3024740946,3
-0.609375,1.240234375,0.154296875,3024740946,3
-0.58203125,1.279296875,0.271484375,3024740946,3
-0.568359375,1.373046875,0.28515625,3024740946,3
-0.58203125,1.41796875,0.255859375,3024740946,3
-0.23046875,1.193359375,0.166015625,3024740946,3
-0.27734375,1.220703125,0.19921875,3024740946,3
-0.24609375,1.263671875,0.234375,3024740946,3
-0.294921875,1.255859375,0.396484375,3024740946,3
-0.6953125,1.203125,0.0703125,3024740946,3
-0.58203125,1.2890625,0.224609375,3024740946,3
-0.3671875,1.365234375,0.408203125,3024740946,3
-0.47265625,1.375,0.419921875,3024740946,3
-0.58203125,1.390625,0.375,3024740946,3
-0.6484375,1.408203125,0.376953125,3024740946,3
-0.23828125,1.212890625,0.283203125,3024740946,3
-0.287109375,1.236328125,0.32421875,3024740946,3
-0.25390625,1.12890625,0.697265625,3024740946,3
-0.65234375,1.201171875,0.259765625,3024740946,3
-0.58203125,1.275390625,0.294921875,3024740946,3
-0.552734375,1.306640625,0.396484375,3024740946,3
-0.568359375,1.3359375,0.427734375,3024740946,3
-0.630859375,1.34765625,0.4453125,3024740946,3
-0.19140625,1.212890625,0.017578125,3024740946,3
-0.197265625,1.251953125,0.0234375,3024740946,3
-0.205078125,1.29296875,0.04296875,3024740946,3
-0.294921875,1.31640625,0.0625,3024740946,3
-0.19140625,1.208984375,0.0859375,3024740946,3
-0.23828125,1.2421875,0.09375,3024740946,3
-0.287109375,1.2734375,0.107421875,3024740946,3
-0.294921875,1.30859375,0.158203125,3024740946,3
-0.3046875,1.32421875,0.29296875,3024740946,3
-0.134765625,1.396484375,0.283203125,3024740946,3
-0.138671875,1.41796875,0.37109375,3024740946,3
-0.134765625,1.396484375,-0.287109375,3024740946,3
-0.67578125,1.16796875,-0.01953125,3024740946,3
-0.27734375,1.234375,0.09375,3074326881,4
-0.287109375,1.2734375,0.095703125,3074326881,4
-0.609375,1.25,0.029296875,3074326881,4
-0.626953125,1.287109375,0.029296875,3074326881,4
-0.158203125,1.2421875,0.203125,3074326881,4
-0.1640625,1.263671875,0.30078125,3074326881,4
-0.58984375,1.20703125,0.12890625,3074326881,4
-0.65234375,1.220703125,0.140625,3074326881,4
-0.626953125,1.283203125,0.1015625,3074326881,4
-0.138671875,1.12890625,0.935546875,3074326881,4
-0.58984375,1.19921875,0.1875,3074326881,4
-0.65234375,1.212890625,0.19921875,3074326881,4
-0.626953125,1.271484375,0.19921875,3074326881,4
-0.65234375,1.20703125,0.23046875,3074326881,4
-0.44921875,1.224609375,0.1171875,3074326881,4
-0.18359375,1.3671875,0.513671875,3074326881,4
-0.126953125,0.68359375,1.15625,3074326881,4
-0.689453125,1.30078125,-0.001953125,3074326881,4
0.0,0.80859375,-1.029296875,3074326881,4
-0.689453125,1.27734375,-0.24609375,3074326881,4
-0.154296875,1.216796875,0.025390625,3124729938,5
-0.119140625,1.26171875,0.048828125,3124729938,5
-0.1640625,1.296875,0.0703125,3124729938,5
-0.421875,1.283203125,0.01171875,3124729938,5
-0.609375,1.248046875,0.09375,3124729938,5
-0.08984375,1.244140625,0.703125,3124729938,5
-0.138671875,1.34765625,0.578125,3124729938,5
-0.115234375,1.21875,0.08203125,3124729938,5
-0.119140625,1.259765625,0.08984375,3124729938,5
-0.123046875,1.296875,0.130859375,3124729938,5
-0.2109375,1.314453125,0.21875,3124729938,5
-0.130859375,1.314453125,0.43359375,3124729938,5
-0.1796875,1.337890625,0.478515625,3124729938,5
-0.18359375,1.353515625,0.55078125,3124729938,5
-0.189453125,1.361328125,0.6328125,3124729938,5
-0.154296875,1.2109375,0.1328125,3124729938,5
-0.158203125,1.25,0.140625,3124729938,5
-0.1640625,1.287109375,0.169921875,3124729938,5
-0.2109375,1.314453125,0.228515625,3124729938,5
-0.1796875,1.294921875,0.583984375,3124729938,5
-0.18359375,1.306640625,0.65234375,3124729938,5
-0.154296875,1.203125,0.18359375,3124729938,5
-0.158203125,1.244140625,0.193359375,3124729938,5
-0.1640625,1.28125,0.21484375,3124729938,5
-0.2109375,1.306640625,0.267578125,3124729938,5
-0.197265625,1.2265625,0.25390625,3124729938,5
-0.609375,1.24609375,0.115234375,3124729938,5
-0.626953125,1.27734375,0.154296875,3124729938,5
-0.689453125,1.2734375,0.26171875,3124729938,5
-0.24609375,1.28515625,0.03515625,3124729938,5
-0.58984375,1.201171875,0.173828125,3124729938,5
-0.609375,1.23046875,0.22265625,3124729938,5
-0.626953125,1.25390625,0.294921875,3124729938,5
-0.275390625,1.439453125,0.150390625,3124729938,5
-0.47265625,1.427734375,0.166015625,3124729938,5
-0.58203125,1.41796875,0.2578125,3124729938,5
-0.087890625,1.0546875,0.904296875,3124729938,5
-0.626953125,1.287109375,-0.0234375,3124729938,5
-0.689453125,1.28515625,-0.203125,3124729938,5
-0.609375,1.181640625,-0.408203125,3124729938,5
-0.197265625,1.251953125,0.044921875,3174569545,6
-0.205078125,1.291015625,0.076171875,3174569545,6
-0.2109375,1.33203125,0.041015625,3174569545,6
-0.216796875,1.37109375,-0.0703125,3174569545,6
-0.134765625,1.41796875,0.146484375,3174569545,6
-0.306640625,1.173828125,0.189453125,3174569545,6
-0.27734375,1.23046875,0.138671875,3174569545,6
-0.24609375,1.283203125,0.078125,3174569545,6
-0.2109375,1.33203125,-0.03515625,3174569545,6
-0.173828125,1.380859375,-0.0078125,3174569545,6
-0.1796875,1.400390625,0.234375,3174569545,6
-0.23046875,1.3828125,0.451171875,3174569545,6
-0.37890625,1.359375,0.548828125,3174569545,6
-0.31640625,1.197265625,0.267578125,3174569545,6
-0.24609375,1.2734375,0.18359375,3174569545,6
-0.2109375,1.328125,0.119140625,3174569545,6
-0.216796875,1.37109375,0.072265625,3174569545,6
-0.1796875,1.37890625,0.341796875,3174569545,6
-0.23828125,1.240234375,-0.12109375,3174569545,6
-0.24609375,1.27734375,-0.146484375,3174569545,6
-0.23046875,1.205078125,0.015625,3174569545,6
-0.197265625,1.251953125,-0.02734375,3174569545,6
-0.24609375,1.28515625,-0.05078125,3174569545,6
-0.25390625,1.322265625,-0.107421875,3174569545,6
-0.564453125,1.234375,0.30078125,3174569545,6
-0.134765625,1.421875,0.11328125,3174569545,6
-0.23046875,1.41015625,0.353515625,3174569545,6
-0.33203125,1.421875,0.400390625,3174569545,6
-0.6953125,1.080078125,0.53125,3174569545,6
-0.6328125,0.9140625,0.765625,3174569545,6
-0.65234375,1.09375,0.560546875,3174569545,6
-0.6953125,1.03515625,0.6171875,3174569545,6
-0.173828125,1.3671875,-0.181640625,3174569545,6
