-0.689453125,3.072265625,0.087890625,2981824092,213
-0.59765625,3.1328125,-0.07421875,2981824092,213
-0.60546875,3.171875,-0.12109375,2981824092,213
-0.919921875,3.1328125,0.228515625,2981824092,213
-0.517578125,3.21484375,0.6171875,2981824092,213
-0.5234375,3.28125,0.455078125,2981824092,213
-0.63671875,3.326171875,0.234375,2981824092,213
-0.58984375,3.076171875,0.3359375,2981824092,213
-0.498046875,3.13671875,0.3125,2981824092,213
-0.60546875,3.15234375,0.376953125,2981824092,213
-0.51171875,3.15625,0.693359375,2981824092,213
-0.4140625,3.205078125,0.7265625,2981824092,213
-0.419921875,3.251953125,0.705078125,2981824092,213
-0.63671875,3.291015625,0.54296875,2981824092,213
-0.64453125,3.357421875,0.353515625,2981824092,213
-0.58984375,3.041015625,0.57421875,2981824092,213
-0.59765625,3.080078125,0.583984375,2981824092,213
-0.60546875,3.11328125,0.6171875,2981824092,213
-0.51171875,3.1640625,0.662109375,2981824092,213
-0.4140625,3.1796875,0.83203125,2981824092,213
-0.5234375,3.19921875,0.857421875,2981824092,213
-0.53125,3.271484375,0.734375,2981824092,213
-0.59765625,3.099609375,0.458984375,2981824092,213
-0.60546875,3.125,0.552734375,2981824092,213
-0.51171875,3.142578125,0.755859375,2981824092,213
-0.4140625,3.107421875,1.0703125,2981824092,213
-0.298828125,3.171875,-0.177734375,2981824092,213
-0.404296875,3.203125,-0.162109375,2981824092,213
-0.498046875,3.15234375,0.009765625,2981824092,213
-0.505859375,3.19140625,0.04296875,2981824092,213
-0.51171875,3.23046875,-0.087890625,2981824092,213
-0.39453125,3.125,-0.080078125,2981824092,213
-0.498046875,3.150390625,-0.107421875,2981824092,213
-0.404296875,3.205078125,-0.08203125,2981824092,213
-0.51171875,3.232421875,-0.048828125,2981824092,213
-0.39453125,3.125,0.052734375,2981824092,213
-0.3984375,3.166015625,0.060546875,2981824092,213
-0.505859375,3.19140625,0.091796875,2981824092,213
-0.51171875,3.23046875,0.099609375,2981824092,213
-0.39453125,3.119140625,0.1875,2981824092,213
-0.498046875,3.146484375,0.18359375,2981824092,213
-0.505859375,3.18359375,0.23828125,2981824092,213
-0.716796875,3.177734375,0.3203125,2981824092,213
-0.724609375,3.228515625,0.173828125,2981824092,213
-0.62890625,3.29296875,-0.119140625,2981824092,213
-0.505859375,3.15234375,0.49609375,2981824092,213
-0.919921875,3.123046875,0.322265625,2981824092,213
-0.828125,3.1796875,0.427734375,2981824092,213
-0.734375,3.26171875,0.26953125,2981824092,213
0.1015625,2.22265625,2.400390625,2981824092,213
-0.39453125,3.103515625,0.369140625,1403639458,1
-0.3984375,3.14453125,0.359375,1403639458,1
-0.505859375,3.162109375,0.4296875,1403639458,1
-0.51171875,3.189453125,0.529296875,1403639458,1
-0.517578125,3.19921875,0.69140625,1403639458,1
-0.59765625,3.01953125,0.837890625,1403639458,1
-0.60546875,3.06640625,0.818359375,1403639458,1
-0.61328125,3.0546875,1.001953125,1403639458,1
-0.70703125,3.04296875,0.828125,1403639458,1
-0.39453125,3.125,-0.037109375,1403639458,1
-0.298828125,3.17578125,-0.037109375,1403639458,1
-0.404296875,3.20703125,-0.005859375,1403639458,1
-0.408203125,3.23828125,0.248046875,1403639458,1
-0.517578125,3.224609375,0.5546875,1403639458,1
-0.291015625,3.0859375,0.25,1403639458,1
-0.39453125,3.12109375,0.169921875,1403639458,1
-0.3984375,3.162109375,0.16015625,1403639458,1
-0.404296875,3.19921875,0.201171875,1403639458,1
-0.51171875,3.20703125,0.404296875,1403639458,1
-0.4140625,3.21484375,0.68359375,1403639458,1
-0.314453125,3.248046875,0.775390625,1403639458,1
-0.4921875,3.05078125,0.611328125,1453618314,2
-0.59765625,3.091796875,0.51171875,1453618314,2
-0.60546875,3.12890625,0.53125,1453618314,2
-0.61328125,3.154296875,0.623046875,1453618314,2
-0.724609375,3.09765625,0.923828125,1453618314,2
-0.689453125,3.013671875,0.603515625,1453618314,2
-0.59765625,3.0703125,0.625,1453618314,2
-0.70703125,3.08203125,0.66796875,1453618314,2
-0.818359375,3.076171875,0.759765625,1453618314,2
-0.4140625,3.234375,0.583984375,1453618314,2
-0.697265625,3.009765625,0.796875,1453618314,2
-0.70703125,3.03515625,0.853515625,1453618314,2
-0.498046875,3.15234375,0.005859375,1453618314,2
-0.505859375,3.19140625,0.025390625,1453618314,2
-0.51171875,3.23046875,0.095703125,1453618314,2
-0.4921875,3.103515625,0.23046875,1453618314,2
-0.498046875,3.14453125,0.21484375,1453618314,2
-0.505859375,3.181640625,0.259765625,1453618314,2
-0.51171875,3.208984375,0.392578125,1453618314,2
-0.62109375,3.216796875,0.4921875,1453618314,2
-0.197265625,3.107421875,-0.470703125,1503431016,3
-0.998046875,2.7890625,1.18359375,1503431016,3
-0.80859375,2.970703125,0.982421875,1503431016,3
-0.517578125,3.2109375,0.638671875,1503431016,3
-0.294921875,3.1328125,0.138671875,1503431016,3
-0.3984375,3.16015625,0.18359375,1503431016,3
-0.697265625,3.08203125,0.44140625,1503431016,3
-0.70703125,3.119140625,0.458984375,1503431016,3
-0.697265625,3.060546875,0.568359375,1503431016,3
-0.70703125,3.091796875,0.623046875,1503431016,3
-0.517578125,3.24609375,0.412109375,1503431016,3
0.099609375,2.845703125,-1.4375,1503431016,3
-0.498046875,3.130859375,0.36328125,1553717712,4
-0.404296875,3.18359375,0.373046875,1553717712,4
-0.306640625,3.251953125,0.193359375,1553717712,4
-0.310546875,3.267578125,0.451171875,1553717712,4
-0.314453125,3.26953125,0.68359375,1553717712,4
-0.4921875,3.08203125,0.42578125,1553717712,4
-0.498046875,3.125,0.408203125,1553717712,4
-0.404296875,3.1875,0.349609375,1553717712,4
-0.306640625,3.236328125,0.380859375,1553717712,4
-0.310546875,3.248046875,0.57421875,1553717712,4
-0.314453125,3.234375,0.830078125,1553717712,4
-0.697265625,3.095703125,0.337890625,1553717712,4
-0.70703125,3.134765625,0.34765625,1553717712,4
-0.59765625,3.080078125,0.578125,1553717712,4
-0.70703125,3.103515625,0.556640625,1553717712,4
-0.716796875,3.140625,0.58203125,1553717712,4
-0.62109375,3.171875,0.732421875,1553717712,4
-0.59765625,3.048828125,0.728515625,1553717712,4
-0.60546875,3.091796875,0.716796875,1553717712,4
-0.716796875,3.115234375,0.705078125,1553717712,4
-0.60546875,3.068359375,0.81640625,1553717712,4
-0.61328125,3.099609375,0.849609375,1553717712,4
-0.60546875,3.05859375,0.8515625,1553717712,4
-0.51171875,3.125,0.82421875,1553717712,4
-0.3984375,3.162109375,-0.15625,1553717712,4
-0.39453125,3.119140625,0.205078125,1604100587,5
-0.3984375,3.162109375,0.154296875,1604100587,5
-0.404296875,3.197265625,0.24609375,1604100587,5
-0.51171875,3.048828125,1.072265625,1604100587,5
-0.310546875,3.263671875,0.486328125,1604100587,5
-0.5234375,3.27734375,0.48828125,1604100587,5
-0.63671875,3.287109375,0.55859375,1604100587,5
-0.267578125,4.27734375,0.2890625,1604100587,5
-0.40625,4.287109375,0.5078125,1604100587,5
-0.39453125,3.09375,0.4375,1604100587,5
-0.3984375,3.142578125,0.37890625,1604100587,5
-0.404296875,3.19921875,0.2265625,1604100587,5
-0.306640625,3.166015625,0.767578125,1604100587,5
-0.310546875,3.23046875,0.666015625,1604100587,5
-0.419921875,3.24609375,0.73046875,1604100587,5
-0.63671875,3.234375,0.814453125,1604100587,5
-0.751953125,3.244140625,0.84375,1604100587,5
-0.267578125,4.2578125,0.490234375,1604100587,5
-0.271484375,4.28125,0.63671875,1604100587,5
-0.2734375,4.36328125,-0.220703125,1604100587,5
-0.4140625,4.380859375,0.390625,1604100587,5
-0.279296875,4.404296875,0.640625,1604100587,5
-0.59765625,3.076171875,0.59765625,1604100587,5
-0.205078125,3.140625,0.8984375,1604100587,5
-0.310546875,3.173828125,0.90234375,1604100587,5
-0.419921875,3.19140625,0.9453125,1604100587,5
-0.63671875,3.25390625,0.73046875,1604100587,5
-0.4140625,3.1875,0.8046875,1604100587,5
-0.5234375,3.248046875,0.6484375,1604100587,5
-0.63671875,3.263671875,0.689453125,1604100587,5
-0.4140625,3.17578125,0.8515625,1604100587,5
-0.419921875,3.232421875,0.787109375,1604100587,5
-0.423828125,3.29296875,0.708984375,1604100587,5
-0.208984375,3.34765625,0.076171875,1604100587,5
0.103515625,1.1875,-3.091796875,1604100587,5
0.1015625,1.134765625,-3.068359375,1604100587,5
0.0,1.6015625,-2.900390625,1604100587,5
0.0,1.875,-2.78125,1604100587,5
0.0,1.765625,-2.8046875,1604100587,5
-0.498046875,3.130859375,0.353515625,1604100587,5
-0.505859375,3.16015625,0.453125,1604100587,5
-0.51171875,3.189453125,0.521484375,1604100587,5
-0.517578125,3.21484375,0.615234375,1604100587,5
-0.271484375,4.328125,-0.00390625,1604100587,5
-1.03515625,3.078125,0.654296875,1604100587,5
-1.125,3.060546875,0.2734375,1604100587,5
-1.2421875,3.03125,0.4921875,1604100587,5
-1.2578125,2.998046875,0.82421875,1604100587,5
-0.498046875,3.111328125,0.501953125,1654477341,6
-0.505859375,3.1171875,0.68359375,1654477341,6
-0.51171875,3.138671875,0.775390625,1654477341,6
-0.310546875,3.251953125,0.55078125,1654477341,6
-0.419921875,3.314453125,0.3046875,1654477341,6
-0.63671875,3.33203125,0.138671875,1654477341,6
-0.751953125,3.349609375,0.169921875,1654477341,6
-0.58984375,3.068359375,0.39453125,1654477341,6
-0.59765625,3.115234375,0.34375,1654477341,6
-0.60546875,3.166015625,0.232421875,1654477341,6
-0.205078125,3.263671875,0.119140625,1654477341,6
-0.20703125,3.25390625,0.591796875,1654477341,6
-0.314453125,3.283203125,0.611328125,1654477341,6
-0.53125,3.302734375,0.58203125,1654477341,6
-0.64453125,3.318359375,0.61328125,1654477341,6
-0.134765625,4.2578125,0.556640625,1654477341,6
-0.271484375,4.2734375,0.6796875,1654477341,6
-0.2734375,4.29296875,0.810546875,1654477341,6
0.0,4.333984375,0.85546875,1654477341,6
0.0,4.376953125,0.849609375,1654477341,6
-0.205078125,3.21484375,0.578125,1654477341,6
-0.310546875,3.2109375,0.759765625,1654477341,6
-0.314453125,3.25,0.767578125,1654477341,6
-0.423828125,3.291015625,0.720703125,1654477341,6
-0.134765625,4.26953125,0.44140625,1654477341,6
-0.134765625,4.29296875,0.587890625,1654477341,6
-0.13671875,4.2421875,1.068359375,1654477341,6
-0.275390625,4.328125,0.83984375,1654477341,6
-0.279296875,4.388671875,0.7421875,1654477341,6
-0.421875,4.3984375,0.85546875,1654477341,6
0.0,3.291015625,0.388671875,1654477341,6
0.0,4.240234375,0.333984375,1654477341,6
0.0,4.265625,0.505859375,1654477341,6
-0.134765625,4.296875,0.572265625,1654477341,6
-0.2734375,4.337890625,0.517578125,1654477341,6
0.0,4.357421875,0.73046875,1654477341,6
-0.138671875,4.37890625,0.826171875,1654477341,6
0.0,3.2578125,0.31640625,1654477341,6
0.0,3.298828125,0.30859375,1654477341,6
0.0,3.337890625,0.337890625,1654477341,6
0.0,4.25,0.626953125,1654477341,6
-0.134765625,4.259765625,0.796875,1654477341,6
0.0,3.25,0.380859375,1654477341,6
0.0,3.287109375,0.41015625,1654477341,6
0.0,3.330078125,0.40234375,1654477341,6
0.0,3.39453125,0.09765625,1654477341,6
0.0,3.220703125,0.583984375,1654477341,6
-0.103515625,3.265625,0.544921875,1654477341,6
0.0,3.3046875,0.576171875,1654477341,6
0.0,3.361328125,0.47265625,1654477341,6
0.0,3.259765625,0.58984375,1654477341,6
0.0,3.25,0.830078125,1654477341,6
-0.5234375,1.69921875,-2.84375,1654477341,6
-0.53125,0.7578125,3.267578125,1654477341,6
-0.537109375,2.005859375,2.73828125,1654477341,6
-0.517578125,2.76171875,-1.755859375,1654477341,6
-0.5234375,2.150390625,-2.521484375,1654477341,6
-0.423828125,1.82421875,-2.83203125,1654477341,6
-0.537109375,1.43359375,-3.076171875,1654477341,6
-0.517578125,2.826171875,-1.65234375,1654477341,6
-0.419921875,2.41015625,-2.294921875,1654477341,6
-0.53125,2.205078125,-2.525390625,1654477341,6
-0.4296875,2.234375,-2.57421875,1654477341,6
-0.5234375,2.4765625,-2.201171875,1654477341,6
