0.0,1.94921875,-0.2421875,3724365458,269
0.0,1.99609375,-0.173828125,3724365458,269
0.126953125,1.91796875,-0.69921875,3724365458,269
0.064453125,2.01171875,-0.548828125,3724365458,269
0.06640625,2.056640625,-0.5390625,3724365458,269
0.134765625,2.087890625,-0.56640625,3724365458,269
-0.275390625,1.89453125,-1.1015625,3724365458,269
-0.3515625,1.671875,-1.462890625,3724365458,269
-0.4296875,1.6796875,-1.498046875,3724365458,269
0.0,1.962890625,-0.072265625,3724365458,269
0.0,2.00390625,-0.041015625,3724365458,269
0.064453125,1.783203125,1.0,3724365458,269
2.513671875,1.0,32.001953125,3724365458,269
37.0,0.00390625,30.5,3724365458,269
0.5,0.0,0.5,3724365458,269
32.0,4.5,24.0,3724365458,269
-52.998046875,47.005859375,24.998046875,3724365458,269
-18.0,5.505859375,25.498046875,3724365458,269
2.5,57.0078125,25.998046875,3724365458,269
8.5,28.5078125,26.498046875,3724365458,269
-14.498046875,-8.494140625,26.998046875,3724365458,269
19.5,31.5078125,27.001953125,3724365458,269
38.0,2.5078125,29.501953125,3724365458,269
-47.498046875,-18.9921875,24.498046875,3724365458,269
-44.498046875,-63.994140625,24.998046875,3724365458,269
-24.998046875,-19.994140625,25.498046875,3724365458,269
6.5,-54.9921875,25.998046875,3724365458,269
13.0,34.5078125,26.498046875,3724365458,269
-7.998046875,-26.994140625,26.998046875,3724365458,269
0.501953125,-43.9921875,27.498046875,3724365458,269
12.501953125,44.0078125,27.998046875,3724365458,269
19.501953125,28.5078125,25.498046875,3724365458,269
10.5,-3.9921875,25.998046875,3724365458,269
21.0,-8.4921875,26.498046875,3724365458,269
-6.998046875,-0.494140625,26.998046875,3724365458,269
12.501953125,-53.4921875,27.498046875,3724365458,269
20.001953125,54.5078125,27.998046875,3724365458,269
35.501953125,51.5078125,20.998046875,3724365458,269
35.5,36.505859375,21.498046875,3724365458,269
46.0,36.005859375,22.498046875,3724365458,269
-55.5,-53.994140625,27.998046875,3724365458,269
20.498046875,-9.49609375,28.005859375,3724365458,269
58.501953125,43.0078125,28.5,3724365458,269
-60.998046875,63.0078125,20.0,3724365458,269
26.5,49.505859375,20.998046875,3724365458,269
36.0,42.505859375,21.498046875,3724365458,269
42.0,21.505859375,21.998046875,3724365458,269
63.5,-41.994140625,22.498046875,3724365458,269
-54.0,-28.994140625,20.498046875,3724365458,269
27.5,50.005859375,20.998046875,3724365458,269
36.0,42.005859375,21.498046875,3724365458,269
42.0,22.505859375,20.498046875,3724365458,269
28.0,56.005859375,20.998046875,3724365458,269
37.0,48.505859375,21.498046875,3724365458,269
45.0,31.005859375,20.498046875,3724365458,269
-34.5,-34.498046875,20.50390625,3724365458,269
-24.5,-31.498046875,21.00390625,3724365458,269
14.5,-43.99609375,20.50390625,3724365458,269
-46.0,-15.498046875,29.00390625,3724365458,269
-43.001953125,28.0078125,29.998046875,3724365458,269
-35.501953125,4.0078125,30.498046875,3724365458,269
-29.501953125,-16.9921875,28.49609375,3724365458,269
45.501953125,49.5078125,29.498046875,3724365458,269
-36.001953125,-40.9921875,29.998046875,3724365458,269
-0.224609375,1.29296875,1.23046875,741350066,1
-0.171875,1.32421875,1.265625,741350066,1
-0.1171875,1.4375,1.208984375,741350066,1
0.123046875,1.94140625,-0.259765625,741350066,1
0.0625,2.001953125,-0.09375,741350066,1
0.0,2.04296875,0.091796875,741350066,1
-0.224609375,1.2109375,1.3125,741350066,1
-0.171875,1.251953125,1.33984375,741350066,1
-0.234375,1.345703125,1.29296875,741350066,1
-0.220703125,1.05078125,1.392578125,741350066,1
-0.224609375,1.08984375,1.4140625,741350066,1
-0.23046875,1.123046875,1.44140625,741350066,1
-0.234375,1.22265625,1.412109375,741350066,1
0.576171875,1.91015625,-0.44921875,741350066,1
0.74609375,2.03125,-0.1484375,741350066,1
-0.224609375,0.62109375,1.673828125,741350066,1
-0.23046875,0.669921875,1.69921875,741350066,1
0.689453125,1.84375,-0.376953125,741350066,1
0.703125,1.88671875,-0.35546875,741350066,1
0.73046875,1.998046875,0.033203125,741350066,1
0.74609375,2.03515625,0.005859375,741350066,1
0.875,2.158203125,-0.107421875,741350066,1
0.81640625,2.21875,-0.208984375,741350066,1
0.6796875,2.287109375,-0.3671875,741350066,1
-0.16796875,1.197265625,1.333984375,741350066,1
-0.171875,1.193359375,1.390625,741350066,1
-0.1171875,1.150390625,1.484375,741350066,1
-0.12109375,1.115234375,1.560546875,741350066,1
0.75390625,2.291015625,-0.083984375,741350066,1
0.767578125,2.32421875,-0.17578125,741350066,1
-0.224609375,1.0390625,1.453125,741350066,1
-0.171875,0.935546875,1.576171875,741350066,1
-0.17578125,0.89453125,1.646484375,741350066,1
-0.1796875,0.912109375,1.681640625,741350066,1
-0.123046875,1.021484375,1.671875,741350066,1
0.6796875,2.31640625,-0.052734375,741350066,1
0.689453125,2.35546875,-0.01953125,741350066,1
-0.171875,0.771484375,1.662109375,741350066,1
-0.17578125,0.779296875,1.703125,741350066,1
-0.12109375,0.81640625,1.736328125,741350066,1
0.6796875,2.31640625,-0.015625,741350066,1
0.689453125,2.35546875,0.017578125,741350066,1
-0.115234375,0.57421875,1.74609375,741350066,1
-0.1171875,0.712890625,1.73828125,741350066,1
-0.12109375,0.8984375,1.6953125,741350066,1
0.056640625,1.83984375,-0.048828125,741350066,1
0.1171875,1.876953125,-0.08203125,741350066,1
0.12109375,1.91015625,-0.173828125,741350066,1
0.123046875,1.95703125,-0.091796875,741350066,1
0.1171875,1.875,-0.09375,741350066,1
0.12109375,1.91796875,-0.04296875,741350066,1
0.123046875,1.958984375,-0.0390625,741350066,1
0.1171875,1.876953125,0.0234375,741350066,1
0.12109375,1.91796875,-0.0234375,741350066,1
0.123046875,1.958984375,-0.05078125,741350066,1
0.125,1.99609375,-0.125,741350066,1
0.123046875,1.958984375,-0.046875,741350066,1
0.125,2.0,-0.0546875,741350066,1
0.19140625,2.033203125,-0.111328125,741350066,1
0.123046875,1.958984375,-0.05859375,741350066,1
0.1875,1.99609375,0.009765625,741350066,1
0.126953125,2.041015625,-0.00390625,741350066,1
0.58203125,2.2109375,-0.458984375,741350066,1
0.66796875,2.216796875,-0.517578125,741350066,1
0.171875,0.4921875,1.765625,791352234,2
-0.17578125,1.181640625,-1.455078125,791352234,2
-0.1796875,0.490234375,-1.849609375,791352234,2
0.18359375,1.9453125,0.1875,791352234,2
0.125,1.9296875,-0.53125,791352234,2
0.126953125,1.857421875,-0.845703125,791352234,2
0.796875,1.931640625,-0.392578125,791352234,2
0.880859375,1.943359375,-0.384765625,791352234,2
0.728515625,2.2109375,-0.115234375,791352234,2
0.7421875,2.25390625,-0.005859375,791352234,2
0.75390625,2.2890625,0.12109375,791352234,2
-0.287109375,1.642578125,0.779296875,791352234,2
-0.294921875,1.84375,0.232421875,791352234,2
0.30078125,1.48828125,1.1796875,791352234,2
0.18359375,1.935546875,-0.271484375,791352234,2
0.125,1.958984375,-0.40234375,791352234,2
0.126953125,1.990234375,-0.455078125,791352234,2
0.1953125,2.0234375,-0.466796875,791352234,2
0.796875,1.96484375,-0.171875,791352234,2
0.8125,2.005859375,-0.119140625,791352234,2
0.890625,2.13671875,0.5234375,791352234,2
-0.294921875,1.498046875,1.1015625,791352234,2
0.240234375,1.7734375,-0.701171875,791352234,2
0.123046875,1.939453125,-0.28515625,791352234,2
0.125,1.98828125,-0.21875,791352234,2
0.126953125,2.037109375,-0.115234375,791352234,2
0.326171875,2.060546875,-0.0390625,791352234,2
0.73046875,1.998046875,-0.02734375,791352234,2
0.8125,2.009765625,-0.00390625,791352234,2
0.22265625,2.205078125,-0.845703125,791352234,2
-0.294921875,1.69921875,0.75390625,791352234,2
0.123046875,1.958984375,0.041015625,791352234,2
0.125,2.0,0.0703125,791352234,2
0.126953125,2.037109375,0.123046875,791352234,2
0.1953125,2.072265625,0.140625,791352234,2
0.24609375,1.947265625,0.078125,791352234,2
0.1875,1.994140625,0.0703125,791352234,2
0.19140625,2.037109375,-0.013671875,791352234,2
0.1953125,2.068359375,-0.1796875,791352234,2
0.18359375,1.9375,-0.2578125,791352234,2
0.1875,1.994140625,-0.068359375,791352234,2
0.19140625,2.03125,-0.138671875,791352234,2
0.287109375,1.1171875,1.43359375,791352234,2
0.234375,1.359375,1.28125,791352234,2
0.125,1.986328125,0.232421875,791352234,2
0.126953125,2.0390625,0.07421875,791352234,2
0.287109375,0.9296875,1.5625,791352234,2
0.294921875,1.0390625,1.541015625,791352234,2
-0.361328125,1.86328125,-0.3125,791352234,2
0.1875,1.994140625,0.080078125,791352234,2
-0.24609375,1.888671875,0.474609375,791352234,2
0.375,0.8203125,-1.791015625,791352234,2
-0.05859375,0.77734375,1.712890625,791352234,2
-0.1796875,1.01953125,1.619140625,791352234,2
-0.18359375,1.732421875,0.908203125,791352234,2
-0.224609375,1.142578125,1.373046875,791352234,2
-0.171875,0.984375,1.546875,791352234,2
-0.17578125,0.876953125,1.65625,791352234,2
-0.1796875,0.974609375,1.646484375,791352234,2
-0.18359375,1.298828125,1.4609375,791352234,2
-0.224609375,1.130859375,1.3828125,791352234,2
-0.171875,1.00390625,1.533203125,791352234,2
-0.17578125,0.890625,1.6484375,791352234,2
-0.1796875,0.884765625,1.697265625,791352234,2
-0.220703125,0.666015625,1.61328125,841349822,3
-0.224609375,0.759765625,1.615234375,841349822,3
-0.23046875,0.822265625,1.630859375,841349822,3
-0.234375,0.935546875,1.615234375,841349822,3
-0.12109375,1.3671875,1.345703125,841349822,3
0.060546875,1.81640625,-0.740234375,841349822,3
0.125,1.95703125,-0.412109375,841349822,3
0.19140625,2.0078125,-0.337890625,841349822,3
0.326171875,2.021484375,-0.396484375,841349822,3
0.962890625,2.140625,0.341796875,841349822,3
-0.220703125,1.041015625,1.400390625,841349822,3
-0.224609375,1.056640625,1.439453125,841349822,3
-0.171875,1.01953125,1.5234375,841349822,3
-0.17578125,1.056640625,1.546875,841349822,3
-0.12109375,1.048828125,1.607421875,841349822,3
0.123046875,1.869140625,-0.58984375,841349822,3
0.125,1.939453125,-0.494140625,841349822,3
0.19140625,1.986328125,-0.451171875,841349822,3
0.26171875,1.99609375,-0.55078125,841349822,3
0.73046875,1.984375,-0.220703125,841349822,3
0.8125,2.0078125,-0.1015625,841349822,3
-0.1171875,0.873046875,1.662109375,841349822,3
-0.12109375,1.125,1.5546875,841349822,3
0.060546875,1.951171875,0.216796875,841349822,3
0.125,1.98828125,-0.21875,841349822,3
0.126953125,2.025390625,-0.2578125,841349822,3
0.1953125,2.05078125,-0.328125,841349822,3
0.6640625,2.01953125,-0.078125,841349822,3
0.74609375,2.03515625,-0.044921875,841349822,3
-0.171875,0.671875,1.705078125,841349822,3
-0.17578125,0.720703125,1.728515625,841349822,3
-0.1796875,0.87890625,1.701171875,841349822,3
-0.123046875,1.34375,1.42578125,841349822,3
0.0625,1.96484375,0.39453125,841349822,3
0.126953125,2.037109375,0.138671875,841349822,3
-0.17578125,0.53515625,1.794921875,841349822,3
-0.1796875,0.658203125,1.796875,841349822,3
-0.123046875,0.892578125,1.744140625,841349822,3
-0.171875,0.720703125,1.685546875,841349822,3
-0.17578125,0.849609375,1.669921875,841349822,3
-0.12109375,0.865234375,1.712890625,841349822,3
-0.16796875,0.4375,1.73828125,841349822,3
-0.115234375,0.623046875,1.728515625,841349822,3
-0.1171875,0.7578125,1.71875,841349822,3
-0.12109375,0.859375,1.71484375,841349822,3
-0.123046875,0.953125,1.7109375,841349822,3
-0.171875,0.396484375,1.7890625,841349822,3
-0.1171875,0.40234375,1.833984375,841349822,3
-0.12109375,0.52734375,1.845703125,841349822,3
0.123046875,1.95703125,-0.08984375,841349822,3
0.1875,1.990234375,-0.1328125,841349822,3
-0.16796875,1.23828125,1.294921875,841349822,3
-0.171875,1.27734375,1.314453125,841349822,3
-0.17578125,1.39453125,1.25,841349822,3
0.4375,62.763671875,-0.34375,841349822,3
-0.220703125,1.15625,1.306640625,841349822,3
-0.16796875,1.173828125,1.35546875,841349822,3
-0.171875,1.19921875,1.38671875,841349822,3
-0.17578125,1.25,1.396484375,841349822,3
-0.1796875,1.3984375,1.30859375,841349822,3
0.125,1.998046875,-0.1015625,841349822,3
0.126953125,2.0390625,-0.09765625,841349822,3
0.1953125,2.07421875,-0.119140625,841349822,3
-0.220703125,1.021484375,1.4140625,841349822,3
0.234375,0.482421875,-1.802734375,891342018,4
0.1875,1.890625,0.638671875,891342018,4
0.3203125,2.01953125,0.068359375,891342018,4
0.5859375,1.994140625,-0.185546875,891342018,4
0.73046875,1.96875,-0.337890625,891342018,4
0.8125,1.98046875,-0.34765625,891342018,4
0.759765625,2.05078125,-0.306640625,891342018,4
0.84375,2.064453125,-0.302734375,891342018,4
0.904296875,2.236328125,-0.025390625,891342018,4
0.919921875,2.275390625,0.017578125,891342018,4
0.779296875,2.37109375,0.029296875,891342018,4
0.125,1.95703125,0.412109375,891342018,4
0.126953125,2.041015625,0.00390625,891342018,4
0.65234375,1.982421875,0.015625,891342018,4
0.73046875,1.98828125,-0.197265625,891342018,4
0.74609375,2.025390625,-0.20703125,891342018,4
0.759765625,2.068359375,-0.16015625,891342018,4
0.7734375,2.107421875,-0.142578125,891342018,4
0.98046875,2.171875,0.38671875,891342018,4
0.919921875,2.24609375,0.365234375,891342018,4
0.857421875,2.3359375,0.193359375,891342018,4
0.060546875,1.8984375,0.498046875,891342018,4
0.125,1.943359375,0.478515625,891342018,4
0.19140625,2.021484375,0.2421875,891342018,4
0.26171875,2.0625,-0.166015625,891342018,4
0.73046875,1.998046875,-0.00390625,891342018,4
0.74609375,2.033203125,-0.087890625,891342018,4
0.759765625,2.07421875,-0.064453125,891342018,4
0.7734375,2.111328125,-0.07421875,891342018,4
0.123046875,1.958984375,-0.015625,891342018,4
0.125,2.0,0.03515625,891342018,4
0.126953125,2.03125,0.193359375,891342018,4
0.123046875,1.95703125,0.1171875,891342018,4
0.1875,1.994140625,0.06640625,891342018,4
0.125,2.0,0.017578125,891342018,4
0.056640625,1.833984375,-0.134765625,891342018,4
0.05859375,1.869140625,-0.205078125,891342018,4
0.18359375,1.955078125,-0.05078125,891342018,4
0.056640625,1.833984375,-0.140625,891342018,4
0.1171875,1.87109375,-0.166015625,891342018,4
0.12109375,1.91015625,-0.173828125,891342018,4
0.287109375,0.0,1.833984375,891342018,4
0.294921875,0.451171875,-1.802734375,891342018,4
0.287109375,1.056640625,1.48046875,891342018,4
0.353515625,1.11328125,1.474609375,891342018,4
0.361328125,1.068359375,1.556640625,891342018,4
0.28125,0.69140625,1.638671875,891342018,4
0.287109375,0.74609375,1.658203125,891342018,4
0.294921875,0.810546875,1.671875,891342018,4
0.30078125,0.806640625,1.71875,891342018,4
0.28125,0.720703125,1.625,891342018,4
0.287109375,0.828125,1.619140625,891342018,4
0.294921875,0.84375,1.65625,891342018,4
0.30078125,0.828125,1.708984375,891342018,4
0.28125,0.765625,1.60546875,891342018,4
0.345703125,0.896484375,1.5703125,891342018,4
0.353515625,1.01171875,1.546875,891342018,4
-0.419921875,1.83203125,-0.404296875,891342018,4
0.28125,0.91796875,1.521484375,891342018,4
0.287109375,0.978515625,1.533203125,891342018,4
0.294921875,1.03515625,1.544921875,891342018,4
-0.419921875,1.83203125,-0.400390625,891342018,4
0.345703125,0.916015625,1.55859375,891342018,4
-0.412109375,1.818359375,-0.255859375,891342018,4
-0.23046875,0.7265625,1.67578125,941355142,5
-0.17578125,0.955078125,1.611328125,941355142,5
-0.12109375,0.984375,1.646484375,941355142,5
-0.18359375,0.154296875,-1.94921875,941355142,5
0.1875,1.943359375,-0.451171875,941355142,5
0.19140625,2.02734375,-0.19140625,941355142,5
0.130859375,2.08203125,-0.021484375,941355142,5
0.19921875,2.1171875,0.017578125,941355142,5
-0.115234375,0.78515625,1.66015625,941355142,5
-0.17578125,0.8828125,1.65234375,941355142,5
-0.12109375,0.908203125,1.69140625,941355142,5
-0.123046875,0.478515625,1.900390625,941355142,5
0.1875,1.884765625,-0.658203125,941355142,5
0.126953125,2.02734375,-0.234375,941355142,5
0.130859375,2.08203125,0.009765625,941355142,5
0.1328125,2.111328125,0.224609375,941355142,5
-0.171875,0.607421875,1.728515625,941355142,5
-0.1171875,0.6796875,1.751953125,941355142,5
-0.12109375,0.734375,1.7734375,941355142,5
-0.18359375,0.5078125,1.888671875,941355142,5
0.1875,1.900390625,-0.607421875,941355142,5
0.126953125,2.03125,-0.208984375,941355142,5
0.130859375,2.08203125,0.037109375,941355142,5
-0.171875,0.685546875,1.69921875,941355142,5
-0.1171875,0.8359375,1.681640625,941355142,5
-0.12109375,1.037109375,1.615234375,941355142,5
-0.060546875,1.306640625,1.46484375,941355142,5
0.0,1.783203125,0.9140625,941355142,5
-0.115234375,0.48828125,1.771484375,941355142,5
-0.1171875,0.583984375,1.78515625,941355142,5
-0.12109375,0.697265625,1.787109375,941355142,5
-0.123046875,0.826171875,1.77734375,941355142,5
-0.125,1.0234375,1.71875,941355142,5
-0.1171875,0.095703125,-1.875,941355142,5
-0.12109375,0.162109375,1.912109375,941355142,5
-0.123046875,0.4375,1.91015625,941355142,5
-0.125,0.685546875,1.87890625,941355142,5
0.12109375,1.916015625,-0.109375,941355142,5
0.18359375,1.953125,-0.083984375,941355142,5
0.25,1.984375,-0.115234375,941355142,5
0.1796875,1.91015625,-0.12109375,941355142,5
0.18359375,1.953125,-0.08203125,941355142,5
0.1875,1.9921875,-0.109375,941355142,5
0.123046875,1.953125,-0.162109375,941355142,5
0.125,1.99609375,-0.12109375,941355142,5
-0.171875,1.248046875,1.341796875,941355142,5
-0.17578125,1.251953125,1.39453125,941355142,5
-0.240234375,1.236328125,1.453125,941355142,5
-0.224609375,1.119140625,1.392578125,941355142,5
-0.23046875,1.138671875,1.427734375,941355142,5
-0.17578125,1.1640625,1.46875,941355142,5
-0.240234375,1.2265625,1.4609375,941355142,5
-0.18359375,1.484375,1.271484375,941355142,5
-0.224609375,0.89453125,1.544921875,941355142,5
-0.23046875,0.931640625,1.5703125,941355142,5
-0.234375,0.974609375,1.591796875,941355142,5
-0.240234375,1.046875,1.59375,941355142,5
0.0,1.8203125,0.736328125,941355142,5
0.0625,1.955078125,-0.44140625,941355142,5
0.927734375,2.4296875,-0.72265625,941355142,5
0.94140625,2.46484375,-0.73828125,941355142,5
-0.23046875,0.8984375,1.58984375,941355142,5
-0.234375,0.927734375,1.619140625,941355142,5
-0.240234375,1.318359375,1.37890625,941355142,5
0.056640625,1.787109375,-0.208984375,991055487,6
0.056640625,1.81640625,-0.291015625,991055487,6
0.05859375,1.84765625,-0.353515625,991055487,6
0.123046875,1.931640625,-0.326171875,991055487,6
0.125,1.94921875,-0.453125,991055487,6
0.126953125,1.998046875,-0.416015625,991055487,6
0.84375,2.560546875,-0.14453125,991055487,6
0.94140625,2.5703125,-0.1328125,991055487,6
0.869140625,2.640625,-0.080078125,991055487,6
0.056640625,1.79296875,-0.154296875,991055487,6
0.115234375,1.82421875,-0.21875,991055487,6
0.05859375,1.8515625,-0.326171875,991055487,6
0.060546875,1.873046875,-0.43359375,991055487,6
0.18359375,1.951171875,-0.123046875,991055487,6
0.1875,1.958984375,-0.380859375,991055487,6
0.828125,2.046875,-0.0390625,991055487,6
0.056640625,1.787109375,-0.19921875,991055487,6
0.056640625,1.826171875,-0.228515625,991055487,6
0.1171875,1.857421875,-0.279296875,991055487,6
0.12109375,1.865234375,-0.44921875,991055487,6
0.896484375,2.015625,0.107421875,991055487,6
0.0,1.794921875,-0.125,991055487,6
0.056640625,1.83203125,-0.171875,991055487,6
0.05859375,1.86328125,-0.251953125,991055487,6
0.12109375,1.87890625,-0.390625,991055487,6
0.0,1.75390625,-0.40625,991055487,6
0.056640625,1.818359375,-0.283203125,991055487,6
0.05859375,1.865234375,-0.23828125,991055487,6
0.0,1.72265625,-0.359375,991055487,6
0.0,1.765625,-0.349609375,991055487,6
0.0,1.80859375,-0.341796875,991055487,6
0.0,1.71875,-0.369140625,991055487,6
0.0,1.765625,-0.345703125,991055487,6
0.0,1.79296875,-0.419921875,991055487,6
0.0,1.767578125,-0.3359375,991055487,6
0.66796875,2.23046875,-0.4609375,991055487,6
0.134765625,2.15234375,0.220703125,991055487,6
0.138671875,2.197265625,0.17578125,991055487,6
0.728515625,2.197265625,-0.271484375,991055487,6
0.7421875,2.23828125,-0.267578125,991055487,6
0.115234375,1.8203125,-0.24609375,991055487,6
0.125,1.978515625,-0.294921875,991055487,6
0.19140625,2.01953125,-0.263671875,991055487,6
0.130859375,2.078125,-0.115234375,991055487,6
0.134765625,2.14453125,0.291015625,991055487,6
0.138671875,2.181640625,0.3203125,991055487,6
0.927734375,2.498046875,-0.43359375,991055487,6
0.857421875,2.572265625,-0.396484375,991055487,6
0.869140625,2.61328125,-0.38671875,991055487,6
0.068359375,1.55078125,1.572265625,991055487,6
0.068359375,1.0859375,1.921875,991055487,6
