0.060546875,1.958984375,-0.11328125,3209271898,1
0.0625,1.998046875,-0.142578125,3209271898,1
0.064453125,2.041015625,-0.1171875,3209271898,1
0.064453125,2.078125,-0.162109375,3209271898,1
0.06640625,2.115234375,-0.208984375,3209271898,1
0.068359375,2.16015625,-0.18359375,3209271898,1
0.966796875,1.974609375,-0.208984375,3209271898,1
0.84375,2.083984375,-0.07421875,3209271898,1
1.09375,2.05078125,0.189453125,3209271898,1
1.111328125,2.0859375,0.205078125,3209271898,1
-0.54296875,8.4375,-1.931640625,3209271898,1
-0.544921875,8.509765625,-1.791015625,3209271898,1
-0.546875,8.521484375,-1.931640625,3209271898,1
-0.19140625,1.986328125,0.44921875,3209271898,1
-0.26171875,1.98046875,0.599609375,3209271898,1
0.6640625,2.015625,0.130859375,3209271898,1
0.068359375,2.125,0.423828125,3209271898,1
0.068359375,2.19921875,0.193359375,3209271898,1
0.0703125,2.23828125,0.216796875,3209271898,1
0.787109375,2.1328125,0.275390625,3209271898,1
0.875,2.091796875,0.544921875,3209271898,1
0.064453125,1.69921875,-1.208984375,3209271898,1
-0.265625,1.07421875,1.81640625,3209271898,1
0.0,2.123046875,0.4375,3209271898,1
0.0,2.189453125,0.298828125,3209271898,1
0.0,2.232421875,0.275390625,3209271898,1
0.072265625,2.265625,0.3359375,3209271898,1
-0.326171875,1.158203125,1.703125,3209271898,1
-0.59765625,0.0,-2.103515625,3209271898,1
0.0,2.14453125,0.31640625,3209271898,1
-0.068359375,2.189453125,0.291015625,3209271898,1
0.0,2.23828125,0.23046875,3209271898,1
0.072265625,2.287109375,0.091796875,3209271898,1
-0.26171875,0.896484375,1.865234375,3209271898,1
0.3984375,2.015625,0.546875,3209271898,1
0.0,2.162109375,0.169921875,3209271898,1
0.0,2.203125,0.169921875,3209271898,1
0.0,2.24609375,0.130859375,3209271898,1
0.072265625,2.287109375,0.1015625,3209271898,1
-0.390625,0.8671875,1.857421875,3209271898,1
0.46484375,2.001953125,0.544921875,3209271898,1
0.0,2.16796875,0.013671875,3209271898,1
0.0,2.20703125,0.099609375,3209271898,1
0.0,2.24609375,0.1171875,3209271898,1
-0.072265625,2.2890625,0.041015625,3209271898,1
-0.521484375,0.7578125,-1.873046875,3209271898,1
0.53125,1.234375,1.6484375,3209271898,1
0.474609375,1.74609375,1.193359375,3209271898,1
0.20703125,2.125,0.564453125,3209271898,1
0.140625,2.177734375,0.548828125,3209271898,1
1.14453125,1.962890625,-0.291015625,3209271898,1
-0.3984375,2.087890625,-0.091796875,3209271898,1
-0.203125,2.154296875,-0.142578125,3209271898,1
-0.068359375,2.205078125,-0.103515625,3209271898,1
0.0,2.248046875,-0.0625,3209271898,1
0.0,2.291015625,-0.041015625,3209271898,1
-0.1953125,0.666015625,1.966796875,3209271898,1
0.0,0.322265625,-2.103515625,3209271898,1
0.134765625,0.470703125,2.111328125,3209271898,1
0.275390625,0.623046875,2.1015625,3209271898,1
0.2109375,0.833984375,2.078125,3209271898,1
-0.64453125,2.1953125,-0.123046875,3209271898,1
-0.390625,0.888671875,1.845703125,3209271898,1
0.0,0.7421875,-1.994140625,3209271898,1
-0.0625,1.990234375,-0.22265625,3259274486,2
-0.064453125,2.03125,-0.234375,3259274486,2
0.0,2.064453125,-0.296875,3259274486,2
0.0,2.09765625,-0.3515625,3259274486,2
0.134765625,2.154296875,-0.19921875,3259274486,2
0.068359375,2.20703125,-0.044921875,3259274486,2
0.0703125,2.208984375,-0.41796875,3259274486,2
0.142578125,2.2109375,-0.580078125,3259274486,2
0.146484375,2.208984375,-0.734375,3259274486,2
-0.5390625,8.4453125,-1.6953125,3259274486,2
-0.54296875,8.484375,-1.7109375,3259274486,2
-0.544921875,8.51953125,-1.74609375,3259274486,2
-0.546875,8.55078125,-1.791015625,3259274486,2
0.0,2.041015625,-0.138671875,3259274486,2
0.0,2.083984375,-0.099609375,3259274486,2
0.0,2.125,-0.107421875,3259274486,2
0.203125,2.15625,0.10546875,3259274486,2
-0.068359375,2.1953125,0.228515625,3259274486,2
-0.28125,2.21484375,0.283203125,3259274486,2
0.9296875,2.083984375,0.1953125,3259274486,2
1.09375,2.052734375,0.169921875,3259274486,2
0.0,2.04296875,-0.1015625,3259274486,2
0.0,2.0859375,0.03125,3259274486,2
0.19921875,2.1171875,-0.0234375,3259274486,2
0.271484375,2.087890625,0.513671875,3259274486,2
-0.068359375,2.19921875,-0.19921875,3259274486,2
0.703125,2.13671875,-0.07421875,3259274486,2
0.859375,2.123046875,-0.052734375,3259274486,2
1.166015625,2.017578125,0.083984375,3259274486,2
1.083984375,1.873046875,-0.12109375,3259274486,2
1.103515625,1.8984375,-0.234375,3259274486,2
0.7734375,2.107421875,0.15234375,3259274486,2
0.787109375,2.1484375,-0.12109375,3259274486,2
1.185546875,2.052734375,0.06640625,3259274486,2
0.896484375,2.017578125,-0.009765625,3259274486,2
0.84375,2.08203125,0.1171875,3259274486,2
0.716796875,2.14453125,0.37109375,3259274486,2
0.80078125,2.025390625,0.83203125,3259274486,2
1.037109375,2.083984375,0.458984375,3259274486,2
0.64453125,2.1171875,0.58984375,3259274486,2
1.037109375,2.10546875,0.34765625,3259274486,2
-0.20703125,2.1171875,-0.59765625,3259274486,2
-0.28125,2.158203125,-0.57421875,3259274486,2
-0.142578125,2.19921875,-0.625,3259274486,2
-0.275390625,2.140625,-0.470703125,3259274486,2
-0.2109375,2.197265625,-0.43359375,3259274486,2
-0.21484375,2.228515625,-0.48828125,3259274486,2
0.21875,2.318359375,0.119140625,3259274486,2
-0.275390625,2.162109375,-0.36328125,3259274486,2
-0.2109375,2.212890625,-0.353515625,3259274486,2
-0.142578125,2.244140625,-0.43359375,3259274486,2
0.146484375,2.302734375,-0.337890625,3259274486,2
0.1484375,2.349609375,-0.298828125,3259274486,2
0.0,1.958984375,-0.427734375,3259274486,2
0.0,1.986328125,-0.48828125,3259274486,2
0.0,2.025390625,-0.5,3259274486,2
0.1328125,2.04296875,-0.578125,3259274486,2
-0.337890625,2.12109375,0.30078125,3259274486,2
-0.20703125,2.197265625,-0.099609375,3259274486,2
-0.2109375,2.23046875,-0.201171875,3259274486,2
-0.072265625,2.25390625,-0.40625,3259274486,2
0.072265625,2.255859375,-0.5859375,3259274486,2
-0.271484375,8.21875,-2.75390625,3259274486,2
-0.544921875,8.240234375,-2.779296875,3259274486,2
0.0,1.962890625,-0.033203125,3309267381,3
0.0625,1.99609375,-0.169921875,3309267381,3
0.0,2.03125,-0.234375,3309267381,3
0.0,2.05859375,-0.337890625,3309267381,3
0.06640625,2.07421875,-0.462890625,3309267381,3
0.068359375,2.125,-0.421875,3309267381,3
-0.068359375,2.20703125,0.076171875,3309267381,3
0.0703125,2.236328125,0.23828125,3309267381,3
1.001953125,2.01171875,-0.447265625,3309267381,3
0.0,1.962890625,-0.044921875,3309267381,3
0.0,2.00390625,-0.07421875,3309267381,3
0.0,2.04296875,-0.080078125,3309267381,3
0.064453125,2.080078125,-0.134765625,3309267381,3
0.06640625,2.099609375,-0.333984375,3309267381,3
0.068359375,2.140625,-0.333984375,3309267381,3
0.0,2.1796875,-0.359375,3309267381,3
0.9140625,2.0546875,0.076171875,3309267381,3
0.9296875,2.091796875,0.068359375,3309267381,3
1.01953125,2.095703125,0.05078125,3309267381,3
0.0,1.9609375,0.111328125,3309267381,3
0.0,2.00390625,0.0390625,3309267381,3
0.0,2.044921875,0.025390625,3309267381,3
0.064453125,2.0859375,-0.029296875,3309267381,3
0.06640625,2.11328125,-0.228515625,3309267381,3
0.134765625,2.146484375,-0.2734375,3309267381,3
0.068359375,2.166015625,-0.4296875,3309267381,3
0.9140625,2.046875,0.18359375,3309267381,3
1.001953125,2.056640625,0.125,3309267381,3
1.166015625,2.01953125,-0.015625,3309267381,3
1.185546875,2.048828125,-0.15625,3309267381,3
0.0,2.044921875,-0.048828125,3309267381,3
0.064453125,2.083984375,-0.037109375,3309267381,3
0.19921875,2.06640625,0.466796875,3309267381,3
0.203125,2.041015625,0.701171875,3309267381,3
0.138671875,2.076171875,0.7421875,3309267381,3
0.140625,1.541015625,1.6328125,3309267381,3
1.14453125,1.982421875,0.08203125,3309267381,3
1.166015625,2.01953125,0.029296875,3309267381,3
1.185546875,2.0546875,-0.048828125,3309267381,3
-0.46484375,0.32421875,-2.05078125,3309267381,3
0.134765625,2.009765625,0.80078125,3309267381,3
0.138671875,1.970703125,0.990234375,3309267381,3
-0.421875,0.58984375,-2.12890625,3309267381,3
1.14453125,1.98046875,0.115234375,3309267381,3
1.166015625,2.017578125,0.07421875,3309267381,3
1.185546875,2.0546875,0.017578125,3309267381,3
1.20703125,2.087890625,-0.1015625,3309267381,3
-0.19921875,0.84375,1.94140625,3309267381,3
-0.134765625,0.615234375,2.07421875,3309267381,3
-0.138671875,0.73046875,2.080078125,3309267381,3
-0.140625,0.89453125,2.05859375,3309267381,3
-0.287109375,0.80859375,2.125,3309267381,3
1.166015625,2.015625,0.12109375,3309267381,3
1.185546875,2.052734375,0.0703125,3309267381,3
1.130859375,2.1328125,-0.015625,3309267381,3
0.0,0.767578125,1.939453125,3309267381,3
-0.1328125,0.4765625,-2.068359375,3309267381,3
-0.271484375,0.40234375,2.11328125,3309267381,3
-0.20703125,0.50390625,2.140625,3309267381,3
-0.2109375,0.767578125,2.103515625,3309267381,3
-0.21484375,0.99609375,2.05078125,3309267381,3
-0.767578125,1.88671875,-0.18359375,3309267381,3
-0.783203125,1.93359375,-0.05078125,3309267381,3
-0.265625,0.55859375,-2.03515625,3309267381,3
-0.171875,1.83203125,-0.037109375,3359270287,4
-0.234375,1.865234375,-0.05859375,3359270287,4
-0.123046875,1.89453125,-0.5,3359270287,4
-0.0625,1.896484375,-0.642578125,3359270287,4
0.0,1.93359375,-0.666015625,3359270287,4
0.0,2.0078125,-0.56640625,3359270287,4
0.86328125,1.904296875,-0.38671875,3359270287,4
0.880859375,1.94921875,-0.3515625,3359270287,4
0.896484375,1.998046875,-0.2890625,3359270287,4
1.111328125,2.072265625,0.314453125,3359270287,4
1.130859375,2.103515625,0.34765625,3359270287,4
0.408203125,2.576171875,0.23046875,3359270287,4
0.0,1.931640625,-0.35546875,3359270287,4
0.0,1.955078125,-0.443359375,3359270287,4
0.064453125,1.943359375,-0.6328125,3359270287,4
0.84765625,1.7734375,-0.69921875,3359270287,4
0.86328125,1.91796875,-0.3203125,3359270287,4
0.880859375,1.96484375,-0.259765625,3359270287,4
0.828125,2.033203125,-0.25,3359270287,4
0.0,1.986328125,-0.275390625,3359270287,4
0.0,2.0078125,-0.384765625,3359270287,4
0.0,1.984375,-0.646484375,3359270287,4
0.86328125,1.93359375,-0.205078125,3359270287,4
0.8125,2.00390625,-0.142578125,3359270287,4
0.896484375,2.01171875,-0.173828125,3359270287,4
0.94921875,1.9375,-0.212890625,3359270287,4
1.103515625,1.896484375,-0.255859375,3359270287,4
1.1953125,1.876953125,-0.333984375,3359270287,4
-0.115234375,1.775390625,-0.470703125,3359270287,4
-0.17578125,1.779296875,-0.583984375,3359270287,4
-0.30078125,1.68359375,-0.880859375,3359270287,4
-0.11328125,1.765625,-0.333984375,3359270287,4
-0.115234375,1.796875,-0.38671875,3359270287,4
-0.17578125,1.8125,-0.47265625,3359270287,4
-0.1796875,1.82421875,-0.580078125,3359270287,4
0.24609375,1.947265625,0.037109375,3359270287,4
0.25,1.982421875,-0.162109375,3359270287,4
1.111328125,2.09375,-0.080078125,3359270287,4
1.130859375,2.12890625,-0.109375,3359270287,4
-0.11328125,1.779296875,-0.2421875,3359270287,4
-0.115234375,1.814453125,-0.291015625,3359270287,4
-0.1171875,1.84765625,-0.3359375,3359270287,4
-0.1796875,1.86328125,-0.435546875,3359270287,4
0.18359375,1.955078125,0.03515625,3359270287,4
0.1875,1.990234375,-0.134765625,3359270287,4
0.255859375,2.017578125,-0.208984375,3359270287,4
0.859375,2.115234375,-0.193359375,3359270287,4
0.728515625,2.173828125,-0.427734375,3359270287,4
1.037109375,2.126953125,0.166015625,3359270287,4
1.056640625,2.169921875,0.04296875,3359270287,4
-0.115234375,1.8203125,-0.2421875,3359270287,4
-0.1171875,1.853515625,-0.30078125,3359270287,4
0.18359375,1.951171875,0.1171875,3359270287,4
0.25,1.98828125,-0.03515625,3359270287,4
0.255859375,2.021484375,-0.166015625,3359270287,4
0.787109375,2.150390625,0.0546875,3359270287,4
1.166015625,2.013671875,0.146484375,3359270287,4
1.259765625,2.009765625,0.001953125,3359270287,4
0.490234375,2.572265625,-0.00390625,3359270287,4
-0.140625,0.0,0.431640625,3359270287,4
-0.138671875,0.134765625,0.451171875,3359270287,4
-0.171875,1.82421875,-0.1796875,3359270287,4
0.3125,1.974609375,0.134765625,3359270287,4
-0.255859375,1.716796875,-1.08203125,3359270287,4
-0.1796875,1.0625,1.591796875,3409276562,5
-0.123046875,1.578125,1.162109375,3409276562,5
0.125,2.0,0.041015625,3409276562,5
0.064453125,2.0390625,-0.150390625,3409276562,5
0.064453125,2.076171875,-0.193359375,3409276562,5
0.0,2.08984375,-0.39453125,3409276562,5
0.203125,2.068359375,-0.615234375,3409276562,5
0.552734375,2.111328125,-0.341796875,3409276562,5
0.7734375,2.111328125,0.072265625,3409276562,5
0.9296875,2.080078125,0.240234375,3409276562,5
1.09375,2.044921875,0.240234375,3409276562,5
1.111328125,2.0859375,0.203125,3409276562,5
1.20703125,2.078125,0.220703125,3409276562,5
-0.306640625,1.265625,1.470703125,3409276562,5
-0.4375,0.94921875,1.7109375,3409276562,5
0.19140625,2.03515625,-0.037109375,3409276562,5
0.064453125,2.068359375,-0.26171875,3409276562,5
0.0,2.11328125,-0.25,3409276562,5
-0.203125,2.126953125,-0.36328125,3409276562,5
-0.275390625,2.07421875,0.708984375,3409276562,5
-0.0703125,2.224609375,0.330078125,3409276562,5
1.14453125,1.978515625,-0.140625,3409276562,5
0.0,1.6953125,1.068359375,3409276562,5
0.064453125,2.0234375,0.291015625,3409276562,5
0.064453125,2.056640625,-0.34765625,3409276562,5
0.06640625,2.0625,-0.517578125,3409276562,5
-0.271484375,1.712890625,1.30078125,3409276562,5
-0.068359375,2.181640625,0.3359375,3409276562,5
-0.0703125,2.2265625,0.318359375,3409276562,5
0.0,2.25,0.427734375,3409276562,5
0.130859375,1.984375,-0.6328125,3409276562,5
0.19921875,1.720703125,-1.236328125,3409276562,5
-0.134765625,2.09375,0.546875,3409276562,5
-0.068359375,2.166015625,0.427734375,3409276562,5
-0.0703125,2.212890625,0.40234375,3409276562,5
-0.126953125,2.03125,-0.208984375,3409276562,5
-0.064453125,2.064453125,-0.296875,3409276562,5
0.06640625,2.111328125,-0.255859375,3409276562,5
0.0,2.166015625,-0.091796875,3409276562,5
0.0,2.203125,-0.162109375,3409276562,5
0.0,1.537109375,1.287109375,3409276562,5
-0.064453125,1.80859375,0.953125,3409276562,5
-0.064453125,2.083984375,-0.04296875,3409276562,5
0.0,2.125,-0.109375,3409276562,5
-0.068359375,2.162109375,0.1484375,3409276562,5
-0.068359375,2.205078125,0.12109375,3409276562,5
-0.0703125,2.248046875,0.064453125,3409276562,5
-0.0625,1.646484375,1.140625,3409276562,5
-0.064453125,1.767578125,1.029296875,3409276562,5
0.0,2.076171875,0.19921875,3409276562,5
0.0,2.123046875,-0.140625,3409276562,5
0.0,2.16015625,-0.1875,3409276562,5
0.138671875,2.142578125,-0.521484375,3409276562,5
-0.19140625,2.017578125,0.27734375,3409276562,5
0.0,2.0859375,-0.03125,3409276562,5
0.06640625,2.123046875,-0.115234375,3409276562,5
0.068359375,2.166015625,-0.08984375,3409276562,5
0.068359375,2.20703125,-0.087890625,3409276562,5
0.140625,2.2421875,-0.12109375,3409276562,5
0.072265625,2.275390625,15999.748046875,3409276562,5
0.1953125,0.94140625,1.8515625,3409276562,5
0.265625,0.0,2.11328125,3409276562,5
0.271484375,0.34765625,-2.123046875,3409276562,5
0.275390625,0.40625,-2.154296875,3409276562,5
0.0,1.962890625,0.029296875,3459271537,6
0.0,2.00390625,0.041015625,3459271537,6
-0.064453125,2.04296875,-0.07421875,3459271537,6
0.0,2.06640625,-0.28125,3459271537,6
0.0,2.091796875,-0.384765625,3459271537,6
0.068359375,2.140625,-0.337890625,3459271537,6
0.828125,2.04296875,-0.14453125,3459271537,6
0.0,2.181640625,-0.546875,3459271537,6
-0.54296875,8.4765625,-1.74609375,3459271537,6
-0.544921875,8.5234375,-1.720703125,3459271537,6
0.0,2.00390625,-0.001953125,3459271537,6
0.0,2.04296875,-0.076171875,3459271537,6
0.0,2.076171875,-0.212890625,3459271537,6
0.06640625,2.109375,-0.2578125,3459271537,6
0.134765625,2.1640625,-0.05078125,3459271537,6
0.20703125,2.181640625,0.275390625,3459271537,6
0.28125,2.205078125,0.3515625,3459271537,6
0.357421875,2.208984375,0.48828125,3459271537,6
0.0,2.083984375,-0.11328125,3459271537,6
0.06640625,2.111328125,-0.244140625,3459271537,6
-0.40625,2.013671875,0.6953125,3459271537,6
0.345703125,2.177734375,0.130859375,3459271537,6
0.28125,2.2265625,0.14453125,3459271537,6
0.357421875,2.259765625,0.130859375,3459271537,6
-0.203125,2.14453125,0.244140625,3459271537,6
-0.275390625,2.10546875,-0.611328125,3459271537,6
0.3515625,2.22265625,-0.033203125,3459271537,6
0.287109375,2.263671875,-0.20703125,3459271537,6
-0.134765625,2.1640625,-0.044921875,3459271537,6
-0.138671875,2.201171875,-0.107421875,3459271537,6
-0.140625,2.240234375,-0.16015625,3459271537,6
-0.142578125,2.2734375,-0.236328125,3459271537,6
-0.203125,2.154296875,-0.146484375,3459271537,6
-0.20703125,2.19140625,-0.181640625,3459271537,6
-0.140625,2.236328125,-0.19921875,3459271537,6
-0.142578125,2.267578125,-0.291015625,3459271537,6
-0.146484375,2.220703125,-0.69921875,3459271537,6
-0.203125,2.15625,-0.107421875,3459271537,6
-0.20703125,2.193359375,-0.1484375,3459271537,6
-0.140625,2.240234375,-0.1640625,3459271537,6
-0.142578125,2.271484375,-0.251953125,3459271537,6
0.21875,2.3203125,-0.0703125,3459271537,6
-0.271484375,2.150390625,-0.01953125,3459271537,6
-0.275390625,2.19140625,0.001953125,3459271537,6
-0.3515625,2.22265625,0.021484375,3459271537,6
-0.357421875,2.26171875,0.080078125,3459271537,6
0.365234375,2.287109375,-0.271484375,3459271537,6
0.0,0.142578125,-2.1640625,3459271537,6
-0.068359375,0.984375,-1.9765625,3459271537,6
-0.140625,1.982421875,-1.0546875,3459271537,6
-0.21484375,2.27734375,-0.11328125,3459271537,6
0.58203125,0.697265625,2.146484375,3459271537,6
0.068359375,1.015625,1.9140625,3459271537,6
-0.828125,2.0390625,-0.18359375,3459271537,6
0.4921875,1.203125,1.8359375,3459271537,6
0.64453125,1.296875,1.775390625,3459271537,6
0.0,1.078125,1.880859375,3459271537,6
0.138671875,1.05859375,1.93359375,3459271537,6
0.3515625,0.720703125,2.1015625,3459271537,6
0.357421875,0.828125,2.10546875,3459271537,6
0.072265625,1.3125,1.92578125,3459271537,6
-0.068359375,1.53125,1.533203125,3459271537,6
-0.138671875,1.90625,1.107421875,3459271537,6
-0.140625,2.205078125,0.42578125,3459271537,6
