0.4453125,0.935546875,0.576171875,2811480317,386
0.421875,0.974609375,0.615234375,2811480317,386
0.515625,1.0,0.5859375,2811480317,386
0.654296875,0.98046875,0.568359375,2811480317,386
0.716796875,1.056640625,0.435546875,2811480317,386
0.24609375,1.947265625,-0.07421875,2811480317,386
0.1875,1.990234375,-0.140625,2811480317,386
0.19140625,2.03515625,-0.041015625,2811480317,386
0.0,2.08203125,0.14453125,2811480317,386
0.53125,2.033203125,-0.328125,2811480317,386
0.474609375,2.10546875,-0.208984375,2811480317,386
0.482421875,2.142578125,1.263671875,2811480317,386
2.513671875,1.0,-15.998046875,2811480317,386
-9.5,0.005859375,-45.5,2811480317,386
0.5,0.0,0.5,2811480317,386
7.0,4.5,28.5,2811480317,386
14.00390625,-35.4921875,29.498046875,2811480317,386
12.50390625,-36.9921875,30.998046875,2811480317,386
25.00390625,-59.9921875,27.0,2811480317,386
34.49609375,-37.9921875,27.998046875,2811480317,386
49.998046875,-17.9921875,28.498046875,2811480317,386
60.498046875,-59.4921875,28.5,2811480317,386
-60.501953125,-35.9921875,29.0,2811480317,386
-53.501953125,-16.9921875,30.0,2811480317,386
-8.49609375,-0.494140625,28.99609375,2811480317,386
-7.49609375,-33.994140625,29.498046875,2811480317,386
38.498046875,-24.9921875,28.501953125,2811480317,386
-34.99609375,31.005859375,29.49609375,2811480317,386
-29.49609375,46.505859375,30.49609375,2811480317,386
-44.501953125,35.5078125,6.001953125,2811480317,386
1.158203125,2.001953125,3.005859375,2811480317,386
-15.998046875,0.001953125,33.5,2811480317,386
49.5,18.630859375,17.236328125,2811480317,386
0.5,0.0,-50.0,2811480317,386
27.5,0.0,19.0,2811480317,386
28.0,0.0,56.0,2811480317,386
28.5,0.0,-57.0,2811480317,386
29.0,0.0,50.0,2811480317,386
29.998046875,0.0,23.0,2811480317,386
26.498046875,0.5,27.0,2811480317,386
26.998046875,0.5,19.0,2811480317,386
27.498046875,0.5,26.5,2811480317,386
27.998046875,0.5,17.0,2811480317,386
28.498046875,0.5,21.0,2811480317,386
28.5,0.5,37.5,2811480317,386
29.0,0.5,35.0,2811480317,386
29.998046875,0.5,25.5,2811480317,386
28.498046875,-1.0,46.998046875,2811480317,386
28.5,-1.0,60.498046875,2811480317,386
29.498046875,-1.0,38.998046875,2811480317,386
26.49609375,-0.5,13.498046875,2811480317,386
27.498046875,-0.5,19.998046875,2811480317,386
27.998046875,-0.5,19.998046875,2811480317,386
28.0,-0.5,-12.501953125,2811480317,386
28.5,-0.5,22.998046875,2811480317,386
29.498046875,-0.5,-15.501953125,2811480317,386
29.998046875,-0.5,60.998046875,2811480317,386
28.998046875,0.0,44.5,2811480317,386
29.0,0.0,37.5,2811480317,386
29.998046875,0.0,13.5,2811480317,386
28.0078125,0.5,11.5,2811480317,386
28.5,0.5,27.0,2811480317,386
29.0,0.5,23.0,2811480317,386
28.5,-1.0,32.498046875,2811480317,386
1.23828125,1.96875,-0.166015625,2082805324,2
1.259765625,2.009765625,0.015625,2082805324,2
1.28125,2.044921875,-0.015625,2082805324,2
1.3046875,2.078125,-0.08984375,2082805324,2
1.326171875,2.107421875,-0.173828125,2082805324,2
1.42578125,2.033203125,-0.513671875,2082805324,2
1.259765625,2.009765625,0.037109375,2082805324,2
1.20703125,2.0859375,0.126953125,2082805324,2
1.3046875,2.078125,0.0390625,2082805324,2
1.248046875,2.16015625,-0.072265625,2082805324,2
1.34765625,2.142578125,-0.166015625,2082805324,2
1.130859375,2.078125,0.474609375,2082805324,2
1.2265625,2.11328125,0.236328125,2082805324,2
1.248046875,2.16015625,0.052734375,2082805324,2
1.130859375,2.125,0.171875,2082805324,2
1.150390625,2.166015625,0.10546875,2082805324,2
0.984375,0.0,-2.193359375,2082805324,2
1.001953125,0.0,-2.255859375,2082805324,2
1.265625,1.84765625,0.21875,2082805324,2
1.2890625,1.888671875,0.150390625,2082805324,2
1.3125,1.919921875,0.16796875,2082805324,2
1.265625,1.857421875,0.087890625,2082805324,2
1.2890625,1.89453125,0.03125,2082805324,2
1.216796875,1.94140625,0.013671875,2082805324,2
1.23828125,1.974609375,-0.04296875,2082805324,2
1.216796875,1.9375,0.11328125,2082805324,2
1.3125,1.927734375,0.064453125,2082805324,2
1.333984375,1.951171875,-0.208984375,2082805324,2
1.28125,2.0234375,-0.30078125,2082805324,2
1.3125,1.927734375,-0.0390625,2082805324,2
1.259765625,2.0078125,-0.111328125,2082805324,2
1.357421875,1.982421875,-0.2265625,2082805324,2
1.380859375,2.001953125,-0.33203125,2082805324,2
-0.53125,2.03125,-0.345703125,2082805324,2
-0.54296875,2.064453125,-0.380859375,2082805324,2
1.333984375,1.9609375,0.001953125,2082805324,2
1.357421875,1.990234375,-0.1328125,2082805324,2
1.380859375,2.01953125,-0.19921875,2082805324,2
1.404296875,2.044921875,-0.275390625,2082805324,2
1.63671875,2.029296875,0.23828125,2082805324,2
0.396484375,1.33203125,2.12109375,2082805324,2
0.396484375,0.939453125,2.322265625,2082805324,2
1.7578125,1.40234375,0.06640625,2082805324,2
1.861328125,1.333984375,-0.068359375,2082805324,2
0.46875,0.908203125,2.27734375,2082805324,2
-0.501953125,2.216796875,0.28125,2132984187,3
-0.58203125,2.248046875,0.2109375,2132984187,3
1.333984375,1.890625,-0.521484375,2132984187,3
1.357421875,1.994140625,0.046875,2132984187,3
1.380859375,2.02734375,0.09765625,2132984187,3
1.404296875,2.0625,0.056640625,2132984187,3
1.533203125,4.18359375,-0.162109375,2132984187,3
1.546875,4.21484375,-0.306640625,2132984187,3
-0.54296875,2.09765625,-0.072265625,2132984187,3
-0.62109375,2.119140625,-0.02734375,2132984187,3
-0.3515625,1.986328125,0.998046875,2132984187,3
-0.4296875,2.1640625,0.61328125,2132984187,3
-0.58203125,2.208984375,0.46484375,2132984187,3
1.259765625,2.005859375,-0.138671875,2132984187,3
-0.75390625,2.275390625,0.279296875,2132984187,3
1.533203125,1.90625,0.19140625,2132984187,3
1.55859375,1.927734375,0.275390625,2132984187,3
-0.4296875,2.091796875,0.830078125,2132984187,3
1.23828125,1.96875,-0.15625,2132984187,3
1.259765625,2.00390625,-0.1640625,2132984187,3
1.45703125,1.814453125,0.154296875,2132984187,3
1.482421875,1.849609375,0.087890625,2132984187,3
1.45703125,1.8125,0.171875,2132984187,3
1.408203125,1.900390625,0.181640625,2132984187,3
1.505859375,2.03125,-0.201171875,2132984187,3
1.28125,2.041015625,-0.12890625,2132984187,3
1.505859375,2.0390625,-0.0625,2132984187,3
1.611328125,2.009765625,-0.087890625,2132984187,3
1.533203125,4.171875,-0.353515625,2132984187,3
1.546875,4.197265625,-0.490234375,2132984187,3
1.23828125,1.9453125,-0.34765625,2132984187,3
1.45703125,1.947265625,-0.33203125,2132984187,3
1.404296875,2.05078125,-0.220703125,2132984187,3
1.505859375,2.0390625,-0.08984375,2132984187,3
1.611328125,2.01171875,-0.015625,2132984187,3
1.533203125,4.171875,-0.3515625,2132984187,3
1.546875,4.205078125,-0.421875,2132984187,3
-0.4296875,2.216796875,0.3828125,2132984187,3
1.23828125,1.96875,-0.171875,2132984187,3
-0.7421875,2.25390625,0.029296875,2132984187,3
1.357421875,1.994140625,-0.04296875,2132984187,3
1.380859375,2.029296875,-0.060546875,2132984187,3
1.326171875,2.111328125,-0.123046875,2132984187,3
1.109375,2.28125,0.03125,2132984187,3
1.69140625,1.931640625,0.2265625,2132984187,3
1.533203125,4.177734375,-0.267578125,2132984187,3
1.546875,4.21484375,-0.30859375,2132984187,3
1.703125,4.17578125,-0.529296875,2132984187,3
-0.7421875,2.251953125,0.068359375,2132984187,3
2.92578125,0.0,4.04296875,2132984187,3
0.0,1.962890625,4.048828125,2132984187,3
-1.125,1.7734375,-0.8046875,2132984187,3
1.3125,1.923828125,-0.130859375,2132984187,3
-0.81640625,2.21484375,0.23828125,2132984187,3
1.357421875,1.994140625,-0.06640625,2132984187,3
-0.767578125,2.310546875,0.31640625,2132984187,3
1.07421875,2.0078125,-0.25390625,2132984187,3
-0.65625,2.16015625,0.5859375,2132984187,3
-0.81640625,2.19921875,0.359375,2132984187,3
2.92578125,0.0,3.640625,2132984187,3
0.0,1.533203125,4.23046875,2132984187,3
-0.728515625,2.208984375,-0.150390625,2132984187,3
0.0,2.15625,3.90234375,2132984187,3
0.140625,2.2890625,3.87109375,2132984187,3
-0.609375,2.0703125,-0.21484375,2183282775,4
-0.62109375,2.11328125,-0.1640625,2183282775,4
-0.4921875,2.18359375,0.23046875,2183282775,4
-0.4296875,2.19140625,0.509765625,2183282775,4
-0.21875,2.107421875,0.974609375,2183282775,4
-0.66796875,2.27734375,0.005859375,2183282775,4
-0.6796875,2.30859375,0.189453125,2183282775,4
1.2265625,2.087890625,-0.396484375,2183282775,4
1.248046875,2.1484375,-0.232421875,2183282775,4
1.42578125,2.09375,-0.10546875,2183282775,4
1.44921875,2.119140625,-0.22265625,2183282775,4
-0.65234375,1.9765625,-0.134765625,2183282775,4
-0.59765625,2.03515625,-0.16796875,2183282775,4
-0.609375,2.080078125,-0.05859375,2183282775,4
-0.552734375,2.138671875,0.064453125,2183282775,4
-0.4921875,2.158203125,0.40625,2183282775,4
-0.4296875,2.142578125,0.689453125,2183282775,4
-0.21875,2.08984375,1.01171875,2183282775,4
-0.66796875,2.271484375,0.146484375,2183282775,4
-0.603515625,2.298828125,0.416015625,2183282775,4
1.3046875,2.078125,-0.078125,2183282775,4
1.326171875,2.11328125,-0.07421875,2183282775,4
1.34765625,2.140625,-0.177734375,2183282775,4
-0.62109375,2.111328125,0.193359375,2183282775,4
-0.4921875,2.1171875,0.578125,2183282775,4
-0.501953125,2.078125,0.82421875,2183282775,4
-0.66796875,2.2578125,0.296875,2183282775,4
1.20703125,2.087890625,-0.080078125,2183282775,4
1.3046875,2.078125,0.087890625,2183282775,4
1.326171875,2.11328125,0.083984375,2183282775,4
1.34765625,2.1484375,0.013671875,2183282775,4
1.3046875,2.072265625,0.16015625,2183282775,4
1.248046875,2.16015625,0.083984375,2183282775,4
1.267578125,2.197265625,0.0078125,2183282775,4
1.185546875,2.02734375,-0.3359375,2183282775,4
1.130859375,2.111328125,-0.29296875,2183282775,4
1.2265625,2.12109375,-0.14453125,2183282775,4
1.248046875,2.16015625,-0.064453125,2183282775,4
1.267578125,2.1953125,-0.046875,2183282775,4
1.166015625,1.98828125,-0.349609375,2183282775,4
1.111328125,2.07421875,-0.306640625,2183282775,4
1.130859375,2.107421875,-0.318359375,2183282775,4
1.404296875,2.060546875,0.083984375,2183282775,4
1.166015625,1.986328125,-0.369140625,2183282775,4
1.185546875,2.037109375,-0.263671875,2183282775,4
1.28125,2.041015625,-0.134765625,2183282775,4
1.45703125,1.974609375,0.046875,2183282775,4
1.404296875,2.0625,0.068359375,2183282775,4
1.43359375,1.94140625,0.068359375,2183282775,4
1.45703125,1.96484375,0.19140625,2183282775,4
1.884765625,0.0,-1.787109375,2183282775,4
1.83984375,0.0,-1.740234375,2183282775,4
1.529296875,2.072265625,0.072265625,2183282775,4
1.505859375,2.037109375,0.125,2183282775,4
1.529296875,2.07421875,0.037109375,2183282775,4
1.63671875,2.04296875,-0.00390625,2183282775,4
1.5859375,1.9453125,0.365234375,2183282775,4
1.611328125,2.001953125,0.201171875,2183282775,4
1.5546875,2.103515625,0.095703125,2183282775,4
1.578125,2.138671875,0.01171875,2183282775,4
1.28125,2.0390625,-0.15234375,2183282775,4
1.380859375,2.029296875,0.048828125,2183282775,4
1.326171875,2.11328125,0.06640625,2183282775,4
1.505859375,2.00390625,0.390625,2183282775,4
-0.59765625,2.013671875,-0.337890625,2233234843,5
-0.54296875,2.099609375,0.025390625,2233234843,5
-0.62109375,2.1171875,-0.115234375,2233234843,5
-0.6328125,2.15625,-0.11328125,2233234843,5
-0.357421875,2.1796875,0.60546875,2233234843,5
-0.365234375,2.267578125,0.40625,2233234843,5
-0.4453125,2.302734375,0.365234375,2233234843,5
1.3046875,2.078125,0.08984375,2233234843,5
-2.607421875,7.775390625,-1.541015625,2233234843,5
-2.62109375,7.74609375,-1.85546875,2233234843,5
-0.5859375,1.998046875,-0.111328125,2233234843,5
-0.6640625,2.01171875,-0.193359375,2233234843,5
-0.54296875,2.091796875,0.177734375,2233234843,5
-0.62109375,2.119140625,0.03125,2233234843,5
-0.6328125,2.158203125,0.01171875,2233234843,5
-0.287109375,2.15625,0.716796875,2233234843,5
-0.365234375,2.234375,0.55859375,2233234843,5
-0.4453125,2.267578125,0.53515625,2233234843,5
1.3046875,2.0625,0.26171875,2233234843,5
1.326171875,2.099609375,0.248046875,2233234843,5
-2.607421875,7.837890625,-1.181640625,2233234843,5
-2.62109375,7.845703125,-1.380859375,2233234843,5
-0.54296875,2.07421875,0.318359375,2233234843,5
-0.62109375,2.111328125,0.177734375,2233234843,5
-0.6328125,2.15234375,0.16796875,2233234843,5
-0.357421875,2.048828125,0.958984375,2233234843,5
-0.4375,2.173828125,0.71875,2233234843,5
-0.51953125,2.228515625,0.62890625,2233234843,5
1.380859375,1.986328125,0.416015625,2233234843,5
1.326171875,2.07421875,0.404296875,2233234843,5
1.09375,2.021484375,-0.39453125,2233234843,5
1.111328125,2.046875,-0.44921875,2233234843,5
1.529296875,2.07421875,0.021484375,2233234843,5
1.09375,2.04296875,-0.25390625,2233234843,5
1.111328125,2.072265625,-0.3125,2233234843,5
1.130859375,2.109375,-0.3125,2233234843,5
1.6875,1.7734375,-0.16796875,2233234843,5
1.55859375,1.947265625,-0.056640625,2233234843,5
1.5859375,1.974609375,0.14453125,2233234843,5
1.529296875,2.0703125,0.126953125,2233234843,5
1.5546875,2.10546875,0.05859375,2233234843,5
1.111328125,2.0859375,-0.20703125,2233234843,5
1.130859375,2.1328125,-0.001953125,2233234843,5
1.533203125,1.916015625,0.017578125,2233234843,5
1.55859375,1.947265625,0.06640625,2233234843,5
1.505859375,2.029296875,0.208984375,2233234843,5
1.529296875,6.30859375,0.251953125,2233234843,5
1.5546875,2.09375,0.23046875,2233234843,5
1.3046875,2.076171875,0.130859375,2233234843,5
1.482421875,2.005859375,0.076171875,2233234843,5
1.42578125,2.078125,0.2734375,2233234843,5
1.529296875,2.05859375,0.255859375,2233234843,5
1.5546875,2.09765625,0.189453125,2233234843,5
-0.54296875,2.095703125,-0.126953125,2233234843,5
-0.552734375,2.125,-0.234375,2233234843,5
-0.6328125,2.13671875,-0.3125,2233234843,5
-0.21484375,2.236328125,0.4453125,2233234843,5
-0.365234375,2.2890625,0.244140625,2233234843,5
1.505859375,1.990234375,0.453125,2233234843,5
1.529296875,2.0625,0.21875,2233234843,5
1.47265625,2.16015625,0.1328125,2233234843,5
0.998046875,1.861328125,1.251953125,2233234843,5
1.07421875,1.908203125,-0.671875,2233234843,5
1.23828125,1.81640625,-0.775390625,2233234843,5
-0.521484375,1.990234375,-0.345703125,2283050082,6
-0.53125,2.03125,-0.3359375,2283050082,6
-0.609375,2.052734375,-0.34375,2283050082,6
-0.552734375,2.11328125,-0.33203125,2283050082,6
-0.6328125,2.123046875,-0.390625,2283050082,6
-0.572265625,2.181640625,-0.396484375,2283050082,6
1.09375,2.00390625,-0.47265625,2283050082,6
1.357421875,1.990234375,0.134765625,2283050082,6
1.3046875,2.078125,0.09375,2283050082,6
1.404296875,2.0625,0.033203125,2283050082,6
1.42578125,2.091796875,-0.14453125,2283050082,6
-2.607421875,7.67578125,-1.98046875,2283050082,6
-2.62109375,7.71484375,-1.982421875,2283050082,6
-2.6328125,7.72265625,-2.103515625,2283050082,6
-0.521484375,2.009765625,-0.208984375,2283050082,6
-0.59765625,2.029296875,-0.2265625,2283050082,6
-0.54296875,2.09765625,-0.09375,2283050082,6
-0.62109375,2.111328125,-0.19921875,2283050082,6
-0.6328125,2.142578125,-0.26171875,2283050082,6
-0.64453125,2.16796875,-0.369140625,2283050082,6
1.23828125,1.9609375,-0.2421875,2283050082,6
1.259765625,2.00390625,-0.1640625,2283050082,6
1.28125,2.04296875,-0.0625,2283050082,6
1.380859375,2.02734375,0.08203125,2283050082,6
1.404296875,2.060546875,0.109375,2283050082,6
1.505859375,2.0390625,0.078125,2283050082,6
-2.607421875,7.814453125,-1.328125,2283050082,6
-2.62109375,7.849609375,-1.357421875,2283050082,6
-2.6328125,7.869140625,-1.46484375,2283050082,6
-0.59765625,2.041015625,-0.060546875,2283050082,6
-0.609375,2.080078125,-0.021484375,2283050082,6
-0.62109375,2.119140625,-0.06640625,2283050082,6
-0.703125,2.134765625,-0.115234375,2283050082,6
-0.716796875,2.169921875,-0.1640625,2283050082,6
1.380859375,2.001953125,0.33203125,2283050082,6
1.482421875,1.974609375,0.3671875,2283050082,6
1.505859375,1.998046875,0.412109375,2283050082,6
-2.607421875,7.900390625,-0.65625,2283050082,6
-2.62109375,7.92578125,-0.8046875,2283050082,6
1.380859375,1.986328125,0.41796875,2283050082,6
1.482421875,1.927734375,0.564453125,2283050082,6
1.14453125,1.943359375,-0.39453125,2283050082,6
1.166015625,1.966796875,-0.458984375,2283050082,6
1.5078125,1.8828125,0.064453125,2283050082,6
1.611328125,1.8515625,-0.048828125,2283050082,6
1.43359375,1.91796875,-0.302734375,2283050082,6
1.533203125,1.892578125,-0.302734375,2283050082,6
1.14453125,1.974609375,-0.19921875,2283050082,6
-0.4375,2.2890625,0.068359375,2283050082,6
1.333984375,1.9140625,-0.4296875,2283050082,6
1.357421875,1.96484375,-0.345703125,2283050082,6
1.380859375,1.990234375,-0.39453125,2283050082,6
-0.58203125,2.244140625,-0.24609375,2283050082,6
-0.46484375,2.07421875,-0.09765625,2283050082,6
-0.357421875,2.26171875,0.009765625,2283050082,6
1.23828125,1.931640625,-0.412109375,2283050082,6
1.482421875,1.806640625,-0.41015625,2283050082,6
