0.037109375,1.140625,0.326171875,2629476661,385
-0.0390625,0.783203125,0.943359375,2629476661,385
-0.119140625,0.6015625,1.109375,2629476661,385
-0.1640625,0.482421875,1.205078125,2629476661,385
-0.126953125,1.33203125,-0.173828125,2629476661,385
0.087890625,1.27734375,-0.541015625,2629476661,385
-0.703125,1.896484375,0.30859375,2629476661,385
-0.6640625,1.8671875,0.7734375,2629476661,385
-0.8125,1.943359375,0.51171875,2629476661,385
-0.828125,1.998046875,0.451171875,2629476661,385
-0.84375,2.03125,0.4765625,2629476661,385
-0.1484375,0.4609375,1.41796875,2629476661,385
2.513671875,1.0,32.001953125,2629476661,385
-9.5,0.005859375,-63.0,2629476661,385
0.5,0.0,0.5,2629476661,385
10.5,4.5,25.5,2629476661,385
3.001953125,45.0078125,26.0,2629476661,385
15.001953125,12.5078125,26.5,2629476661,385
20.501953125,10.5078125,27.0,2629476661,385
30.501953125,10.5078125,28.0,2629476661,385
61.0,-26.9921875,25.5,2629476661,385
5.001953125,4.5078125,26.0,2629476661,385
14.501953125,30.5078125,26.5,2629476661,385
19.001953125,43.0078125,27.0,2629476661,385
26.001953125,-57.4921875,27.5,2629476661,385
47.0,5.5078125,28.001953125,2629476661,385
58.0,-11.9921875,26.0,2629476661,385
11.001953125,-60.9921875,26.5,2629476661,385
19.501953125,-47.9921875,27.5,2629476661,385
56.0,34.5078125,28.0,2629476661,385
58.5,-26.4921875,25.0,2629476661,385
-11.498046875,-48.494140625,25.5,2629476661,385
-18.998046875,12.005859375,26.501953125,2629476661,385
19.001953125,44.5078125,27.0,2629476661,385
17.501953125,12.0078125,27.501953125,2629476661,385
39.5,-0.4921875,27.5,2629476661,385
35.501953125,-53.99609375,6.4921875,2629476661,385
38.658203125,0.0,3.5,2629476661,385
1.0,2.001953125,3.005859375,2629476661,385
-31.998046875,0.001953125,33.5,2629476661,385
24.5,-1.5859375,16.71875,2629476661,385
0.5,0.0,-56.0,2629476661,385
24.5,0.0,10.5,2629476661,385
26.001953125,0.0,15.5,2629476661,385
26.5,0.0,24.0,2629476661,385
27.0,0.0,24.5,2629476661,385
27.5,0.0,20.5,2629476661,385
30.5,0.0,13.0,2629476661,385
31.001953125,0.0,23.5,2629476661,385
31.501953125,0.0,21.5,2629476661,385
25.501953125,0.5,24.0,2629476661,385
26.0,0.5,40.0,2629476661,385
26.5,0.5,33.5,2629476661,385
27.0,0.5,20.5,2629476661,385
27.5,0.5,26.5,2629476661,385
28.001953125,0.5,30.5,2629476661,385
31.001953125,0.5,15.0,2629476661,385
31.50390625,0.5,15.0,2629476661,385
26.001953125,1.0,12.5,2629476661,385
25.001953125,-1.0,14.498046875,2629476661,385
26.001953125,-1.0,19.998046875,2629476661,385
26.5,-1.0,28.998046875,2629476661,385
27.498046875,-1.0,25.998046875,2629476661,385
31.498046875,-1.0,21.498046875,2629476661,385
0.501953125,1.888671875,0.4453125,1946110990,2
0.51171875,1.89453125,0.578125,1946110990,2
0.45703125,2.025390625,-0.208984375,1946110990,2
0.46484375,2.072265625,0.115234375,1946110990,2
0.40625,2.11328125,0.259765625,1946110990,2
0.482421875,2.13671875,0.279296875,1946110990,2
0.287109375,2.22265625,0.47265625,1946110990,2
0.4375,2.244140625,0.458984375,1946110990,2
0.51953125,2.283203125,0.380859375,1946110990,2
0.501953125,1.904296875,0.37890625,1946110990,2
0.447265625,1.9453125,0.447265625,1946110990,2
0.390625,1.994140625,0.47265625,1946110990,2
0.3984375,2.041015625,0.447265625,1946110990,2
0.40625,2.0859375,0.431640625,1946110990,2
0.4140625,2.087890625,0.591796875,1946110990,2
0.2109375,2.18359375,0.49609375,1946110990,2
0.287109375,2.201171875,0.568359375,1946110990,2
0.365234375,2.2421875,0.525390625,1946110990,2
0.37109375,2.32421875,0.29296875,1946110990,2
0.447265625,1.92578125,0.521484375,1946110990,2
0.390625,1.978515625,0.537109375,1946110990,2
0.3984375,2.025390625,0.509765625,1946110990,2
0.40625,2.072265625,0.4921875,1946110990,2
0.20703125,2.130859375,0.54296875,1946110990,2
0.2109375,2.162109375,0.587890625,1946110990,2
0.21484375,2.18359375,0.65625,1946110990,2
0.365234375,2.19921875,0.685546875,1946110990,2
0.37109375,2.29296875,0.484375,1946110990,2
0.2109375,2.146484375,0.638671875,1946110990,2
0.21484375,2.16796875,0.708984375,1946110990,2
0.501953125,1.921875,0.263671875,1946110990,2
0.447265625,1.98046875,0.240234375,1946110990,2
0.45703125,2.021484375,0.240234375,1946110990,2
0.4375,1.9140625,0.40234375,1946110990,2
0.447265625,1.953125,0.40625,1946110990,2
0.45703125,1.998046875,0.390625,1946110990,2
0.4375,1.88671875,0.51171875,1946110990,2
0.3828125,1.935546875,0.537109375,1946110990,2
0.390625,1.986328125,0.501953125,1946110990,2
0.3984375,2.05859375,0.361328125,1946110990,2
0.3828125,1.9453125,0.5,1946110990,2
0.390625,1.9921875,0.48046875,1946110990,2
0.3984375,2.037109375,0.466796875,1946110990,2
0.5859375,1.927734375,-0.537109375,1946110990,2
0.46484375,2.07421875,-0.078125,1946110990,2
0.474609375,2.115234375,0.015625,1946110990,2
0.4140625,2.169921875,0.033203125,1946110990,2
0.501953125,2.150390625,0.609375,1946110990,2
0.501953125,1.89453125,0.423828125,1946110990,2
0.576171875,1.962890625,-0.0390625,1946110990,2
0.45703125,2.033203125,-0.103515625,1946110990,2
0.3984375,2.087890625,0.08984375,1946110990,2
0.40625,2.123046875,0.16015625,1946110990,2
0.4140625,2.16015625,0.193359375,1946110990,2
0.421875,2.19921875,0.21875,1946110990,2
0.4375,2.193359375,0.66015625,1946110990,2
-1.482421875,1.998046875,0.193359375,1946110990,2
-1.42578125,2.087890625,0.1953125,1946110990,2
-0.064453125,1.931640625,0.783203125,1946110990,2
0.326171875,2.060546875,0.0234375,1996220716,3
0.3984375,2.08984375,0.02734375,1996220716,3
0.337890625,2.1171875,0.322265625,1996220716,3
0.345703125,2.109375,0.560546875,1996220716,3
0.28125,2.173828125,0.509765625,1996220716,3
0.287109375,2.220703125,0.48046875,1996220716,3
0.4453125,2.1015625,-1.009765625,1996220716,3
0.453125,2.3125,-0.525390625,1996220716,3
0.3828125,1.984375,0.30859375,1996220716,3
0.390625,2.037109375,0.22265625,1996220716,3
0.3984375,2.076171875,0.2421875,1996220716,3
0.474609375,2.099609375,0.263671875,1996220716,3
0.4140625,2.142578125,0.341796875,1996220716,3
0.421875,2.17578125,0.388671875,1996220716,3
0.4296875,2.2109375,0.421875,1996220716,3
0.4453125,2.3046875,-0.34765625,1996220716,3
0.453125,2.333984375,-0.419921875,1996220716,3
-1.42578125,1.955078125,0.7578125,1996220716,3
0.390625,2.013671875,0.384765625,1996220716,3
0.3984375,2.052734375,0.38671875,1996220716,3
0.40625,2.09375,0.392578125,1996220716,3
0.4140625,2.142578125,0.337890625,1996220716,3
0.421875,2.16796875,0.43359375,1996220716,3
0.4296875,2.197265625,0.482421875,1996220716,3
0.4375,2.28125,0.205078125,1996220716,3
0.4453125,2.326171875,-0.130859375,1996220716,3
0.453125,2.36328125,-0.177734375,1996220716,3
0.40625,2.12890625,-0.037109375,1996220716,3
0.482421875,2.13671875,0.279296875,1996220716,3
0.421875,2.150390625,0.5078125,1996220716,3
0.357421875,2.201171875,0.51953125,1996220716,3
0.26171875,2.052734375,0.267578125,1996220716,3
0.265625,2.09765625,0.23828125,1996220716,3
0.271484375,2.134765625,0.263671875,1996220716,3
0.26171875,2.0390625,0.359375,1996220716,3
0.33203125,2.076171875,0.318359375,1996220716,3
0.271484375,2.126953125,0.31640625,1996220716,3
0.326171875,1.99609375,0.515625,1996220716,3
0.33203125,2.0390625,0.501953125,1996220716,3
0.271484375,2.095703125,0.48828125,1996220716,3
0.447265625,0.595703125,1.904296875,1996220716,3
0.767578125,1.1796875,-1.484375,1996220716,3
0.501953125,0.3671875,-1.90625,1996220716,3
0.576171875,0.78515625,-1.798828125,1996220716,3
0.501953125,0.0,-1.970703125,1996220716,3
0.51171875,0.3671875,-1.9453125,1996220716,3
0.4140625,2.14453125,0.328125,1996220716,3
0.421875,2.177734375,0.37109375,1996220716,3
0.357421875,2.21875,0.443359375,1996220716,3
0.291015625,2.251953125,0.533203125,1996220716,3
0.46484375,2.05859375,0.2578125,1996220716,3
0.40625,2.099609375,0.359375,1996220716,3
0.4140625,2.12890625,0.416015625,1996220716,3
0.2109375,2.193359375,0.453125,1996220716,3
0.287109375,2.201171875,0.5703125,1996220716,3
0.291015625,2.23046875,0.611328125,1996220716,3
0.296875,2.275390625,0.6015625,1996220716,3
0.45703125,2.03515625,-0.01171875,1996220716,3
0.46484375,2.07421875,0.068359375,1996220716,3
0.474609375,2.091796875,0.318359375,1996220716,3
0.4140625,2.119140625,0.466796875,1996220716,3
0.421875,2.150390625,0.513671875,1996220716,3
0.21484375,2.13671875,0.796875,1996220716,3
0.291015625,2.212890625,0.671875,1996220716,3
0.326171875,2.044921875,0.251953125,2046219621,4
0.33203125,2.07421875,0.333984375,2046219621,4
0.40625,2.052734375,0.5703125,2046219621,4
0.482421875,1.59375,1.451171875,2046219621,4
0.4921875,2.1875,-0.193359375,2046219621,4
0.4296875,2.2421875,0.197265625,2046219621,4
-1.404296875,2.029296875,0.37109375,2046219621,4
-1.42578125,2.04296875,0.4765625,2046219621,4
-1.44921875,2.04296875,0.603515625,2046219621,4
0.390625,2.017578125,0.357421875,2046219621,4
0.3984375,2.06640625,0.31640625,2046219621,4
0.54296875,2.087890625,0.224609375,2046219621,4
0.828125,2.044921875,0.123046875,2046219621,4
0.2109375,2.236328125,0.115234375,2046219621,4
0.357421875,2.248046875,0.251953125,2046219621,4
0.509765625,2.197265625,0.58984375,2046219621,4
-1.482421875,1.951171875,0.4765625,2046219621,4
-1.505859375,1.95703125,0.576171875,2046219621,4
-1.529296875,1.962890625,0.66796875,2046219621,4
0.609375,2.017578125,0.51171875,2046219621,4
0.689453125,2.07421875,0.31640625,2046219621,4
0.140625,2.115234375,0.751953125,2046219621,4
0.142578125,2.236328125,0.47265625,2046219621,4
0.4375,2.193359375,0.658203125,2046219621,4
-1.482421875,1.890625,0.67578125,2046219621,4
-1.42578125,1.94140625,0.794921875,2046219621,4
0.609375,1.95703125,0.705078125,2046219621,4
0.62109375,2.05078125,0.533203125,2046219621,4
0.6328125,2.14453125,0.255859375,2046219621,4
0.64453125,2.193359375,0.140625,2046219621,4
0.365234375,2.24609375,0.5078125,2046219621,4
0.54296875,1.95703125,0.7578125,2046219621,4
0.552734375,2.029296875,0.673828125,2046219621,4
0.421875,2.14453125,0.537109375,2046219621,4
0.357421875,2.23046875,0.376953125,2046219621,4
0.291015625,2.28125,0.388671875,2046219621,4
0.271484375,2.134765625,0.259765625,2046219621,4
0.275390625,2.169921875,0.310546875,2046219621,4
0.2109375,2.232421875,0.189453125,2046219621,4
0.287109375,2.255859375,0.283203125,2046219621,4
0.291015625,2.287109375,0.349609375,2046219621,4
0.19921875,2.1171875,0.078125,2046219621,4
0.271484375,2.1328125,0.27734375,2046219621,4
0.275390625,2.119140625,0.55859375,2046219621,4
0.140625,2.095703125,0.8046875,2046219621,4
0.19921875,2.115234375,0.099609375,2046219621,4
0.203125,2.154296875,0.134765625,2046219621,4
0.345703125,2.146484375,0.392578125,2046219621,4
0.357421875,2.111328125,-0.8125,2046219621,4
0.365234375,2.232421875,-0.5625,2046219621,4
0.46484375,1.30078125,-1.6171875,2046219621,4
0.474609375,1.58203125,-1.404296875,2046219621,4
0.677734375,2.056640625,-0.12109375,2046219621,4
0.62109375,2.103515625,0.263671875,2046219621,4
0.677734375,2.046875,0.2265625,2046219621,4
0.716796875,2.15625,0.287109375,2046219621,4
0.58203125,2.228515625,0.357421875,2046219621,4
0.62109375,2.015625,0.65625,2046219621,4
0.6328125,2.10546875,0.474609375,2046219621,4
0.64453125,2.162109375,0.39453125,2046219621,4
0.58203125,2.228515625,0.36328125,2046219621,4
0.759765625,2.021484375,0.462890625,2046219621,4
0.703125,2.017578125,0.70703125,2046219621,4
0.572265625,2.162109375,0.4921875,2046219621,4
0.255859375,1.990234375,0.392578125,2096085963,5
0.390625,2.0078125,0.408203125,2096085963,5
0.33203125,2.1015625,0.005859375,2096085963,5
0.54296875,1.919921875,0.849609375,2096085963,5
0.482421875,2.048828125,0.671875,2096085963,5
0.421875,2.109375,0.65625,2096085963,5
-1.482421875,1.98828125,0.279296875,2096085963,5
-1.505859375,2.0,0.408203125,2096085963,5
-1.529296875,2.0078125,0.517578125,2096085963,5
-1.5546875,2.060546875,0.43359375,2096085963,5
-1.744140625,1.994140625,0.212890625,2096085963,5
-1.771484375,2.01953125,0.26171875,2096085963,5
0.390625,2.04296875,0.1640625,2096085963,5
0.3984375,2.083984375,0.146484375,2096085963,5
0.40625,2.123046875,-0.15625,2096085963,5
0.4140625,1.990234375,0.865234375,2096085963,5
0.4921875,2.0546875,0.7734375,2096085963,5
0.501953125,2.162109375,0.5703125,2096085963,5
-1.55859375,1.908203125,0.392578125,2096085963,5
-1.505859375,1.970703125,0.52734375,2096085963,5
-1.529296875,1.96875,0.65234375,2096085963,5
-1.5546875,2.046875,0.49609375,2096085963,5
-1.744140625,1.982421875,0.306640625,2096085963,5
-1.771484375,1.99609375,0.41015625,2096085963,5
0.326171875,2.03515625,0.32421875,2096085963,5
0.33203125,2.08203125,0.283203125,2096085963,5
0.40625,2.111328125,-0.275390625,2096085963,5
0.4140625,1.96484375,0.919921875,2096085963,5
0.421875,2.041015625,0.84765625,2096085963,5
0.501953125,2.078125,0.822265625,2096085963,5
-1.505859375,1.921875,0.685546875,2096085963,5
-1.771484375,1.95703125,0.568359375,2096085963,5
0.4140625,1.966796875,0.916015625,2096085963,5
0.421875,2.001953125,0.93359375,2096085963,5
0.1328125,2.119140625,0.123046875,2096085963,5
0.068359375,2.1640625,0.115234375,2096085963,5
0.134765625,2.14453125,0.28515625,2096085963,5
0.421875,2.1875,0.3203125,2096085963,5
0.501953125,2.193359375,0.435546875,2096085963,5
0.54296875,2.048828125,0.45703125,2096085963,5
0.6328125,2.052734375,0.666015625,2096085963,5
0.64453125,2.11328125,0.60546875,2096085963,5
0.58203125,2.1796875,0.5859375,2096085963,5
0.3203125,2.017578125,0.083984375,2096085963,5
0.390625,2.046875,0.099609375,2096085963,5
0.53125,2.05859375,0.078125,2096085963,5
0.609375,2.060546875,0.294921875,2096085963,5
0.552734375,2.09375,0.435546875,2096085963,5
0.0,2.234375,-0.265625,2096085963,5
0.64453125,2.068359375,0.7421875,2096085963,5
0.3125,1.970703125,0.193359375,2096085963,5
0.3203125,2.009765625,0.19921875,2096085963,5
0.26171875,2.05859375,0.22265625,2096085963,5
0.53125,2.05859375,0.05859375,2096085963,5
0.54296875,2.083984375,0.25,2096085963,5
0.482421875,2.111328125,0.4375,2096085963,5
0.28125,2.1875,0.44140625,2096085963,5
0.7734375,1.66015625,1.306640625,2096085963,5
0.3203125,2.017578125,0.083984375,2145793656,6
0.390625,2.048828125,0.0546875,2145793656,6
0.46484375,2.072265625,0.119140625,2145793656,6
0.474609375,2.109375,0.1484375,2145793656,6
0.482421875,2.107421875,0.453125,2145793656,6
0.6328125,1.666015625,1.375,2145793656,6
0.357421875,2.216796875,0.453125,2145793656,6
0.291015625,2.263671875,0.478515625,2145793656,6
-1.45703125,1.9609375,0.2265625,2145793656,6
-1.482421875,1.994140625,0.234375,2145793656,6
-1.5859375,1.94921875,0.341796875,2145793656,6
0.3203125,2.009765625,0.21484375,2145793656,6
0.26171875,2.0703125,0.046875,2145793656,6
0.59765625,1.98828125,0.46484375,2145793656,6
0.271484375,2.1484375,-0.1015625,2145793656,6
0.4140625,2.154296875,0.2578125,2145793656,6
0.6328125,1.431640625,1.615234375,2145793656,6
0.287109375,2.201171875,0.56640625,2145793656,6
0.291015625,2.21875,0.65234375,2145793656,6
-1.45703125,1.931640625,0.4140625,2145793656,6
-1.482421875,1.966796875,0.40234375,2145793656,6
-1.5859375,1.92578125,0.4609375,2145793656,6
0.271484375,2.146484375,0.1328125,2145793656,6
0.345703125,2.150390625,0.365234375,2145793656,6
0.5625,1.09765625,1.880859375,2145793656,6
0.287109375,2.162109375,0.701171875,2145793656,6
0.291015625,2.177734375,0.779296875,2145793656,6
-1.533203125,1.814453125,0.61328125,2145793656,6
-1.55859375,1.86328125,0.564453125,2145793656,6
-1.5859375,1.873046875,0.640625,2145793656,6
0.73046875,1.951171875,0.427734375,2145793656,6
0.677734375,2.03125,0.341796875,2145793656,6
0.62109375,2.11328125,0.171875,2145793656,6
0.59765625,2.03515625,0.1640625,2145793656,6
0.677734375,2.05078125,0.197265625,2145793656,6
0.4921875,2.169921875,0.328125,2145793656,6
0.521484375,2.017578125,0.111328125,2145793656,6
0.53125,2.0546875,0.15625,2145793656,6
0.609375,2.064453125,0.265625,2145793656,6
0.689453125,1.93359375,0.81640625,2145793656,6
0.4921875,2.142578125,0.474609375,2145793656,6
0.501953125,2.212890625,0.3203125,2145793656,6
-0.140625,2.20703125,-0.412109375,2145793656,6
1.330078125,0.0,-1.919921875,2145793656,6
