-0.123046875,1.91015625,-0.43359375,3990339998,1
-0.1875,1.96484375,-0.3515625,3990339998,1
0.0,1.11328125,-1.71484375,3990339998,1
-0.130859375,2.080078125,0.111328125,3990339998,1
-0.06640625,2.125,0.078125,3990339998,1
-0.068359375,2.16015625,0.173828125,3990339998,1
-0.068359375,2.205078125,0.12109375,3990339998,1
0.0,2.24609375,-0.115234375,3990339998,1
1.001953125,2.060546875,0.015625,3990339998,1
1.166015625,2.017578125,0.091796875,3990339998,1
1.185546875,2.048828125,0.15234375,3990339998,1
1.20703125,2.08203125,0.1796875,3990339998,1
1.2265625,2.119140625,0.177734375,3990339998,1
-0.12109375,1.890625,-0.330078125,3990339998,1
-0.123046875,1.92578125,-0.359375,3990339998,1
-0.25,1.9453125,-0.41796875,3990339998,1
0.0,2.025390625,-0.283203125,3990339998,1
-0.130859375,2.078125,-0.138671875,3990339998,1
-0.1328125,2.12109375,-0.072265625,3990339998,1
-0.271484375,2.140625,0.203125,3990339998,1
-0.20703125,2.1953125,0.142578125,3990339998,1
1.001953125,2.056640625,0.130859375,3990339998,1
1.01953125,2.095703125,0.056640625,3990339998,1
1.037109375,2.1328125,0.015625,3990339998,1
-0.1796875,1.892578125,-0.2890625,3990339998,1
-0.18359375,1.93359375,-0.2890625,3990339998,1
-0.1875,1.955078125,-0.396484375,3990339998,1
-0.19140625,1.9765625,-0.48828125,3990339998,1
-0.1953125,2.044921875,-0.359375,3990339998,1
-0.19921875,2.1015625,-0.25390625,3990339998,1
-0.271484375,2.150390625,0.0390625,3990339998,1
1.01953125,2.09375,0.1171875,3990339998,1
1.037109375,2.130859375,0.08984375,3990339998,1
-0.18359375,1.947265625,-0.181640625,3990339998,1
-0.1875,1.947265625,-0.439453125,3990339998,1
-0.255859375,1.98046875,-0.44140625,3990339998,1
-0.26171875,2.021484375,-0.443359375,3990339998,1
-0.265625,2.060546875,-0.455078125,3990339998,1
-0.337890625,2.0859375,-0.484375,3990339998,1
-0.3125,1.953125,-0.318359375,3990339998,1
-0.255859375,2.001953125,-0.3359375,3990339998,1
-0.26171875,2.0390625,-0.361328125,3990339998,1
-0.33203125,2.056640625,-0.4296875,3990339998,1
-0.271484375,2.1015625,-0.458984375,3990339998,1
1.111328125,2.048828125,0.443359375,3990339998,1
1.130859375,2.1015625,0.36328125,3990339998,1
1.037109375,2.0703125,0.517578125,3990339998,1
1.130859375,2.064453125,0.529296875,3990339998,1
0.06640625,2.103515625,0.3046875,3990339998,1
0.068359375,2.15625,0.22265625,3990339998,1
0.068359375,2.19921875,0.185546875,3990339998,1
0.0703125,2.24609375,0.11328125,3990339998,1
0.06640625,1.93359375,0.884765625,3990339998,1
0.134765625,1.86328125,1.1015625,3990339998,1
0.345703125,0.796875,2.03125,3990339998,1
0.0,2.23046875,-0.29296875,3990339998,1
0.0,2.041015625,-0.6015625,3990339998,1
0.0,2.150390625,-0.27734375,3990339998,1
0.0,2.20703125,-0.099609375,3990339998,1
0.0703125,2.248046875,-0.046875,3990339998,1
0.0,2.28125,-0.212890625,3990339998,1
1.333984375,1.955078125,-0.154296875,3990339998,1
1.28125,2.041015625,-0.123046875,3990339998,1
1.3046875,2.07421875,-0.158203125,3990339998,1
-0.361328125,1.888671875,0.017578125,4040342711,2
-0.306640625,1.939453125,-0.025390625,4040342711,2
0.0625,2.001953125,-0.09765625,4040342711,2
-0.19140625,2.03515625,-0.064453125,4040342711,2
-0.130859375,2.080078125,-0.10546875,4040342711,2
-0.19921875,2.109375,-0.197265625,4040342711,2
-0.134765625,2.1640625,0.037109375,4040342711,2
-0.345703125,2.16015625,0.30859375,4040342711,2
-0.421875,2.197265625,0.228515625,4040342711,2
-0.19140625,2.02734375,0.18359375,4040342711,2
-0.1953125,2.0703125,0.173828125,4040342711,2
-0.06640625,2.09375,0.375,4040342711,2
-0.068359375,2.12109375,0.44140625,4040342711,2
-0.068359375,2.16796875,0.416015625,4040342711,2
-0.0703125,2.244140625,0.1484375,4040342711,2
-0.2734375,4.349609375,0.408203125,4040342711,2
-0.06640625,2.044921875,0.58203125,4040342711,2
-0.068359375,2.09375,0.560546875,4040342711,2
-0.068359375,2.134765625,0.5625,4040342711,2
-0.0703125,2.18359375,0.541015625,4040342711,2
-0.072265625,2.21484375,0.578125,4040342711,2
-0.068359375,2.048828125,0.705078125,4040342711,2
-0.138671875,2.08203125,0.724609375,4040342711,2
0.84375,2.0859375,0.0234375,4040342711,2
0.859375,2.123046875,-0.02734375,4040342711,2
1.166015625,1.984375,-0.37109375,4040342711,2
1.333984375,1.92578125,0.375,4040342711,2
1.43359375,1.884765625,0.46875,4040342711,2
1.45703125,1.9453125,0.34375,4040342711,2
0.9140625,2.0546875,0.037109375,4040342711,2
0.9296875,2.09375,0.037109375,4040342711,2
1.01953125,2.095703125,0.01171875,4040342711,2
1.259765625,2.00390625,0.158203125,4040342711,2
1.357421875,1.990234375,0.14453125,4040342711,2
1.3046875,2.080078125,-0.00390625,4040342711,2
1.703125,4.171875,-0.564453125,4040342711,2
0.759765625,2.068359375,-0.16796875,4040342711,2
0.84375,2.080078125,-0.166015625,4040342711,2
0.859375,2.1171875,-0.171875,4040342711,2
0.947265625,2.125,-0.146484375,4040342711,2
1.111328125,2.033203125,0.5078125,4040342711,2
1.130859375,2.111328125,0.296875,4040342711,2
1.703125,4.162109375,-0.623046875,4040342711,2
1.71875,4.2109375,-0.55859375,4040342711,2
0.759765625,2.072265625,-0.091796875,4040342711,2
0.7734375,2.107421875,-0.14453125,4040342711,2
0.859375,2.11328125,-0.216796875,4040342711,2
0.875,2.150390625,-0.21875,4040342711,2
1.333984375,1.958984375,0.095703125,4040342711,2
1.357421875,1.99609375,-0.025390625,4040342711,2
1.380859375,2.025390625,-0.115234375,4040342711,2
1.404296875,2.044921875,-0.265625,4040342711,2
1.703125,4.16015625,-0.634765625,4040342711,2
1.71875,4.1796875,-0.748046875,4040342711,2
0.828125,2.046875,0.064453125,4040342711,2
0.84375,2.0859375,0.021484375,4040342711,2
0.859375,2.123046875,-0.04296875,4040342711,2
1.333984375,1.958984375,0.083984375,4040342711,2
1.28125,2.04296875,0.07421875,4040342711,2
1.3046875,2.080078125,0.033203125,4040342711,2
1.404296875,2.060546875,-0.107421875,4040342711,2
1.103515625,0.48046875,1.8515625,4040342711,2
1.0546875,0.681640625,1.8671875,4040342711,2
0.21484375,2.234375,-0.453125,4040342711,2
-0.30078125,1.896484375,-0.103515625,4090347540,3
-0.24609375,1.9375,-0.197265625,4090347540,3
-0.1875,1.99609375,-0.033203125,4090347540,3
-0.19140625,2.037109375,-0.015625,4090347540,3
-0.1953125,2.076171875,-0.037109375,4090347540,3
-0.1328125,2.099609375,-0.310546875,4090347540,3
-0.068359375,2.166015625,0.037109375,4090347540,3
-0.068359375,2.205078125,0.09765625,4090347540,3
0.0703125,2.171875,0.580078125,4090347540,3
-0.306640625,1.939453125,-0.01953125,4090347540,3
-0.125,1.998046875,0.08203125,4090347540,3
-0.126953125,2.041015625,0.041015625,4090347540,3
-0.130859375,2.08203125,-0.0078125,4090347540,3
-0.06640625,2.125,0.05859375,4090347540,3
-0.134765625,2.154296875,0.193359375,4090347540,3
-0.068359375,2.189453125,0.291015625,4090347540,3
-0.0703125,2.21875,0.365234375,4090347540,3
-0.19140625,2.03125,0.13671875,4090347540,3
-0.130859375,2.078125,0.130859375,4090347540,3
-0.06640625,2.11328125,0.240234375,4090347540,3
-0.134765625,2.12890625,0.388671875,4090347540,3
-0.138671875,2.162109375,0.4296875,4090347540,3
-0.140625,2.20703125,0.408203125,4090347540,3
-0.26171875,1.9765625,-0.61328125,4090347540,3
-0.33203125,1.966796875,-0.736328125,4090347540,3
-0.271484375,1.771484375,-1.220703125,4090347540,3
-0.138671875,2.095703125,0.68359375,4090347540,3
-0.2109375,2.123046875,0.716796875,4090347540,3
-0.390625,1.9921875,-0.478515625,4090347540,3
-0.3984375,2.0390625,-0.458984375,4090347540,3
-0.271484375,2.1328125,-0.287109375,4090347540,3
-0.20703125,2.197265625,-0.09765625,4090347540,3
1.091796875,1.037109375,1.990234375,4090347540,3
0.703125,2.095703125,-0.423828125,4090347540,3
0.716796875,2.126953125,-0.4609375,4090347540,3
0.80078125,2.14453125,-0.4453125,4090347540,3
1.380859375,2.015625,-0.228515625,4090347540,3
1.404296875,2.046875,-0.251953125,4090347540,3
1.42578125,2.076171875,-0.29296875,4090347540,3
0.703125,2.115234375,-0.30859375,4090347540,3
0.716796875,2.146484375,-0.359375,4090347540,3
0.80078125,2.146484375,-0.431640625,4090347540,3
0.890625,2.154296875,-0.439453125,4090347540,3
1.404296875,2.05859375,-0.1328125,4090347540,3
1.42578125,2.08984375,-0.16796875,4090347540,3
0.703125,2.1328125,-0.1328125,4090347540,3
0.787109375,2.138671875,-0.232421875,4090347540,3
0.80078125,2.158203125,-0.365234375,4090347540,3
0.890625,2.1640625,-0.396484375,4090347540,3
1.404296875,2.05859375,-0.125,4090347540,3
1.42578125,2.09765625,-0.0078125,4090347540,3
0.759765625,2.068359375,-0.154296875,4090347540,3
0.7734375,2.107421875,-0.15234375,4090347540,3
0.787109375,2.14453125,-0.162109375,4090347540,3
0.80078125,2.177734375,-0.234375,4090347540,3
0.890625,2.17578125,-0.32421875,4090347540,3
1.482421875,2.001953125,-0.154296875,4090347540,3
0.759765625,2.072265625,-0.0859375,4090347540,3
0.84375,2.083984375,-0.08203125,4090347540,3
0.787109375,2.1484375,-0.087890625,4090347540,3
0.875,2.16015625,-0.080078125,4090347540,3
0.890625,2.1953125,-0.138671875,4090347540,3
1.45703125,1.97265625,-0.07421875,4090347540,3
1.404296875,2.0625,-0.076171875,4090347540,3
-0.361328125,1.888671875,0.048828125,4140342366,4
-0.306640625,1.939453125,0.005859375,4140342366,4
-0.375,1.96875,-0.017578125,4140342366,4
-0.3203125,2.017578125,-0.09375,4140342366,4
-0.326171875,2.056640625,-0.1171875,4140342366,4
-0.33203125,1.859375,0.978515625,4140342366,4
0.94921875,1.94140625,0.171875,4140342366,4
1.03515625,1.9453125,0.15625,4140342366,4
1.125,1.947265625,-0.072265625,4140342366,4
-0.5546875,0.138671875,-0.03125,4140342366,4
-0.19140625,2.0234375,-0.22265625,4140342366,4
-0.1953125,2.037109375,-0.41015625,4140342366,4
-0.265625,1.97265625,-0.75,4140342366,4
-0.203125,2.125,-0.37890625,4140342366,4
-0.138671875,2.166015625,0.4140625,4140342366,4
-0.0703125,2.220703125,0.353515625,4140342366,4
-0.19140625,2.0234375,-0.22265625,4140342366,4
-0.130859375,2.052734375,-0.34375,4140342366,4
-0.19921875,2.052734375,-0.51953125,4140342366,4
-0.203125,2.107421875,-0.470703125,4140342366,4
-0.068359375,2.1484375,0.5078125,4140342366,4
0.0,2.24609375,0.134765625,4140342366,4
0.9296875,2.046875,0.435546875,4140342366,4
0.0,1.7109375,-2.140625,4140342366,4
0.0,1.66015625,-2.232421875,4140342366,4
0.0,1.23828125,-2.537109375,4140342366,4
-0.130859375,2.052734375,-0.353515625,4140342366,4
-0.1328125,2.083984375,-0.408203125,4140342366,4
-0.134765625,2.046875,-0.701171875,4140342366,4
0.0,1.583984375,-1.541015625,4140342366,4
0.9140625,2.037109375,0.26953125,4140342366,4
0.9296875,2.044921875,0.443359375,4140342366,4
0.947265625,1.94921875,0.861328125,4140342366,4
-0.0859375,1.927734375,-1.9453125,4140342366,4
0.0,2.158203125,-1.755859375,4140342366,4
0.966796875,4.291015625,-0.419921875,4140342366,4
0.9140625,1.986328125,0.533203125,4140342366,4
0.859375,1.7890625,1.14453125,4140342366,4
0.947265625,1.427734375,1.580078125,4140342366,4
0.962890625,1.20703125,1.80078125,4140342366,4
0.859375,1.146484375,1.787109375,4140342366,4
0.875,1.044921875,1.892578125,4140342366,4
0.962890625,0.98828125,1.9296875,4140342366,4
0.54296875,1.318359375,1.6328125,4140342366,4
0.62109375,1.2734375,1.6953125,4140342366,4
0.6328125,1.091796875,1.86328125,4140342366,4
0.787109375,0.830078125,1.984375,4140342366,4
0.875,0.810546875,2.00390625,4140342366,4
0.962890625,0.865234375,1.98828125,4140342366,4
0.53125,1.15234375,1.70703125,4140342366,4
0.54296875,1.232421875,1.69921875,4140342366,4
0.62109375,1.208984375,1.7421875,4140342366,4
0.703125,0.90234375,1.9375,4140342366,4
0.859375,0.833984375,1.953125,4140342366,4
0.947265625,0.80078125,1.974609375,4140342366,4
0.962890625,0.50390625,2.109375,4140342366,4
0.98046875,0.0,2.208984375,4140342366,4
0.796875,1.927734375,-0.412109375,4140342366,4
0.8125,1.962890625,-0.427734375,4140342366,4
0.896484375,1.943359375,-0.544921875,4140342366,4
1.166015625,1.990234375,-0.33984375,4140342366,4
1.185546875,2.052734375,-0.10546875,4140342366,4
1.20703125,2.0859375,-0.125,4140342366,4
0.86328125,1.9140625,-0.337890625,4140342366,4
-0.361328125,1.88671875,-0.056640625,4190342993,5
-0.306640625,1.9375,-0.087890625,4190342993,5
-0.3125,1.958984375,-0.283203125,4190342993,5
-0.255859375,2.029296875,-0.013671875,4190342993,5
-0.326171875,2.060546875,-0.015625,4190342993,5
-0.265625,2.109375,0.03125,4190342993,5
-0.134765625,2.162109375,0.107421875,4190342993,5
1.28125,2.033203125,0.22265625,4190342993,5
-0.255859375,2.025390625,0.140625,4190342993,5
-0.326171875,2.0546875,0.162109375,4190342993,5
-0.19921875,2.111328125,0.166015625,4190342993,5
-0.068359375,2.1484375,0.27734375,4190342993,5
-0.068359375,2.185546875,0.318359375,4190342993,5
-0.0703125,2.23046875,0.283203125,4190342993,5
1.2890625,1.884765625,0.185546875,4190342993,5
-0.134765625,2.14453125,0.2890625,4190342993,5
-0.068359375,2.169921875,0.40625,4190342993,5
-0.0703125,2.2109375,0.4140625,4190342993,5
1.2890625,1.888671875,0.13671875,4190342993,5
0.94921875,1.861328125,-0.58203125,4190342993,5
0.966796875,1.93359375,-0.453125,4190342993,5
0.984375,2.013671875,-0.19140625,4190342993,5
1.07421875,2.021484375,-0.087890625,4190342993,5
0.74609375,1.66015625,-1.1796875,4190342993,5
0.828125,1.9296875,-0.68359375,4190342993,5
0.9140625,2.05078125,-0.130859375,4190342993,5
1.001953125,2.0390625,-0.298828125,4190342993,5
0.9296875,2.05859375,-0.376953125,4190342993,5
-0.197265625,5.98046875,-1.970703125,4190342993,5
0.94921875,1.90625,-0.40625,4190342993,5
0.966796875,1.85546875,-0.7109375,4190342993,5
0.94921875,1.9453125,-0.12890625,4190342993,5
0.966796875,1.986328125,0.046875,4190342993,5
0.9140625,2.033203125,0.3046875,4190342993,5
-0.126953125,1.9453125,-0.619140625,4190342993,5
-0.130859375,1.982421875,-0.634765625,4190342993,5
-0.1328125,1.98046875,-0.765625,4190342993,5
0.94921875,1.93359375,-0.24609375,4190342993,5
1.03515625,1.830078125,-0.677734375,4190342993,5
1.28125,2.04296875,-0.0859375,4190342993,5
-0.125,1.96875,-0.357421875,4190342993,5
-0.126953125,1.984375,-0.474609375,4190342993,5
-0.130859375,2.013671875,-0.53125,4190342993,5
-0.1328125,2.05859375,-0.521484375,4190342993,5
-0.40625,2.12890625,-0.076171875,4190342993,5
0.966796875,1.986328125,-0.029296875,4190342993,5
0.984375,2.021484375,-0.05078125,4190342993,5
0.9296875,2.091796875,-0.078125,4190342993,5
-0.30078125,1.87890625,-0.2734375,4190342993,5
-0.306640625,1.916015625,-0.306640625,4190342993,5
-0.255859375,2.0078125,-0.296875,4190342993,5
-0.326171875,2.048828125,-0.2265625,4190342993,5
-0.3984375,2.0859375,-0.126953125,4190342993,5
-0.54296875,2.095703125,0.103515625,4190342993,5
0.9140625,2.044921875,0.216796875,4190342993,5
0.9296875,2.087890625,0.13671875,4190342993,5
0.947265625,2.12890625,-0.09375,4190342993,5
1.333984375,1.95703125,-0.130859375,4190342993,5
1.357421875,1.98828125,-0.17578125,4190342993,5
1.3046875,2.072265625,15999.83203125,4190342993,5
-0.30078125,1.890625,-0.181640625,4190342993,5
-0.306640625,1.927734375,-0.216796875,4190342993,5
-0.25,1.931640625,-0.4765625,4190342993,5
-0.255859375,2.0234375,-0.1640625,4190342993,5
-0.3671875,1.927734375,-0.05078125,4240344472,6
-0.3125,1.978515625,0.0859375,4240344472,6
-0.3203125,2.017578125,0.08984375,4240344472,6
-0.326171875,2.060546875,0.060546875,4240344472,6
-0.3984375,2.06640625,0.310546875,4240344472,6
-0.337890625,2.095703125,0.4453125,4240344472,6
-0.275390625,2.166015625,0.333984375,4240344472,6
-0.140625,2.240234375,0.1640625,4240344472,6
-0.3125,1.955078125,-0.30859375,4240344472,6
-0.3203125,2.009765625,-0.19921875,4240344472,6
-0.521484375,2.015625,0.125,4240344472,6
-0.138671875,2.201171875,-0.109375,4240344472,6
-0.0703125,2.19921875,-0.466796875,4240344472,6
1.259765625,2.009765625,-0.025390625,4240344472,6
1.28125,2.04296875,-0.072265625,4240344472,6
-0.064453125,2.0234375,-0.505859375,4240344472,6
-0.06640625,2.09375,-0.37109375,4240344472,6
0.74609375,2.015625,-0.28515625,4240344472,6
0.828125,2.029296875,-0.2734375,4240344472,6
0.9140625,2.044921875,-0.208984375,4240344472,6
1.001953125,2.056640625,-0.1015625,4240344472,6
1.333984375,1.9609375,0.021484375,4240344472,6
1.28125,2.044921875,0.029296875,4240344472,6
-0.1328125,2.10546875,0.275390625,4240344472,6
0.74609375,2.021484375,-0.24609375,4240344472,6
0.759765625,2.06640625,-0.177734375,4240344472,6
1.185546875,2.0546875,-0.056640625,4240344472,6
1.20703125,2.087890625,0.09375,4240344472,6
0.73046875,1.970703125,-0.328125,4240344472,6
0.677734375,2.04296875,-0.265625,4240344472,6
0.828125,2.04296875,-0.134765625,4240344472,6
0.7734375,2.111328125,-0.08984375,4240344472,6
1.166015625,2.017578125,0.064453125,4240344472,6
1.111328125,2.095703125,0.05859375,4240344472,6
1.130859375,2.12890625,0.125,4240344472,6
0.73046875,1.953125,-0.421875,4240344472,6
0.74609375,1.9921875,-0.416015625,4240344472,6
0.759765625,1.998046875,-0.5546875,4240344472,6
1.3125,1.927734375,0.041015625,4240344472,6
1.259765625,2.0078125,0.07421875,4240344472,6
1.20703125,2.08984375,0.06640625,4240344472,6
0.73046875,1.966796875,-0.349609375,4240344472,6
0.677734375,2.021484375,-0.392578125,4240344472,6
0.759765625,2.033203125,-0.412109375,4240344472,6
0.984375,1.998046875,-0.314453125,4240344472,6
1.23828125,1.974609375,0.013671875,4240344472,6
1.333984375,1.9609375,-0.01953125,4240344472,6
1.28125,2.044921875,0.001953125,4240344472,6
1.23828125,1.974609375,-0.001953125,4240344472,6
1.259765625,2.009765625,0.00390625,4240344472,6
1.28125,2.044921875,0.0,4240344472,6
1.23828125,0.5546875,1.896484375,4240344472,6
-0.125,1.857421875,-0.7421875,4240344472,6
-0.19140625,1.908203125,-0.7109375,4240344472,6
-0.1953125,1.96875,-0.6640625,4240344472,6
-0.265625,2.025390625,-0.58984375,4240344472,6
0.0,1.185546875,-2.380859375,4240344472,6
0.2734375,4.3359375,0.533203125,4240344472,6
-0.123046875,1.884765625,-0.53515625,4240344472,6
-0.125,1.91796875,-0.56640625,4240344472,6
-0.19140625,1.962890625,-0.54296875,4240344472,6
-0.26171875,2.00390625,-0.517578125,4240344472,6
-0.33203125,2.048828125,-0.46875,4240344472,6
-0.40625,2.10546875,-0.318359375,4240344472,6
