0.125,1.982421875,0.263671875,431262946,276
0.126953125,2.01171875,0.34765625,431262946,276
0.130859375,2.0390625,0.419921875,431262946,276
0.1328125,2.0625,0.501953125,431262946,276
0.271484375,1.96484375,0.873046875,431262946,276
0.275390625,2.18359375,0.181640625,431262946,276
-1.0546875,1.974609375,0.224609375,431262946,276
-1.07421875,2.017578125,0.1484375,431262946,276
-1.166015625,2.00390625,0.25,431262946,276
-1.111328125,2.02734375,0.533203125,431262946,276
-0.689453125,0.0,1.958984375,431262946,276
-0.703125,0.0,1.03515625,431262946,276
2.513671875,1.0,32.001953125,431262946,276
0.5,0.0,-51.5,431262946,276
0.5,0.0,0.5,431262946,276
32.0,4.5,24.0,431262946,276
-30.501953125,14.005859375,24.501953125,431262946,276
-17.0,7.505859375,25.001953125,431262946,276
-8.0,12.505859375,25.501953125,431262946,276
-3.5,32.505859375,26.001953125,431262946,276
3.5,45.0078125,26.501953125,431262946,276
-22.50390625,6.005859375,27.001953125,431262946,276
-21.50390625,36.005859375,27.501953125,431262946,276
-47.50390625,-25.494140625,30.501953125,431262946,276
-49.00390625,56.0078125,31.001953125,431262946,276
-48.00390625,-60.4921875,31.501953125,431262946,276
-30.00390625,-48.9921875,24.001953125,431262946,276
-22.5,-13.494140625,24.5,431262946,276
-13.5,-6.994140625,25.0,431262946,276
-7.001953125,11.505859375,25.501953125,431262946,276
15.498046875,57.5078125,26.0,431262946,276
-2.0,56.505859375,26.501953125,431262946,276
10.0,61.0078125,27.001953125,431262946,276
13.998046875,-47.4921875,27.501953125,431262946,276
11.99609375,-63.9921875,28.001953125,431262946,276
15.49609375,52.5078125,28.501953125,431262946,276
15.99609375,-47.4921875,29.501953125,431262946,276
41.494140625,55.0078125,30.5,431262946,276
-28.001953125,13.5078125,31.001953125,431262946,276
-17.001953125,11.0078125,24.501953125,431262946,276
-12.0,-21.994140625,25.498046875,431262946,276
2.5,-7.9921875,25.998046875,431262946,276
15.5,3.5078125,26.0,431262946,276
25.5,-56.4921875,26.5,431262946,276
26.0,8.0078125,27.001953125,431262946,276
22.998046875,53.0078125,27.501953125,431262946,276
-14.00390625,-15.494140625,28.001953125,431262946,276
-8.50390625,-16.494140625,28.501953125,431262946,276
-14.00390625,38.005859375,29.00390625,431262946,276
22.994140625,45.0078125,29.5,431262946,276
17.494140625,6.0078125,30.001953125,431262946,276
21.494140625,-19.4921875,24.5,431262946,276
-4.5,43.005859375,25.0,431262946,276
8.0,37.0078125,25.5,431262946,276
20.5,27.5078125,26.0,431262946,276
32.5,3.5078125,26.5,431262946,276
15.998046875,-30.4921875,28.49609375,431262946,276
-62.00390625,-55.494140625,28.50390625,431262946,276
-43.50390625,-53.994140625,29.50390625,431262946,276
-14.505859375,-30.494140625,24.501953125,431262946,276
-5.5,51.005859375,25.0,431262946,276
6.0,57.0078125,25.5,431262946,276
19.0,56.0078125,26.0,431262946,276
31.498046875,27.5078125,26.5,431262946,276
0.0625,2.00390625,-0.03125,3126288298,2
0.064453125,2.044921875,-0.029296875,3126288298,2
0.0,2.07421875,0.216796875,3126288298,2
-0.9296875,1.904296875,0.18359375,3126288298,2
-0.94921875,1.939453125,0.203125,3126288298,2
-0.896484375,2.0078125,0.205078125,3126288298,2
-0.984375,2.0078125,0.2421875,3126288298,2
-0.859375,2.099609375,0.314453125,3126288298,2
-1.20703125,2.076171875,0.24609375,3126288298,2
-1.267578125,2.1640625,0.37890625,3126288298,2
0.1875,1.990234375,-0.134765625,3126288298,2
0.064453125,2.04296875,0.0859375,3126288298,2
0.0,2.08203125,0.126953125,3126288298,2
0.19921875,2.111328125,0.16796875,3126288298,2
0.134765625,2.134765625,0.353515625,3126288298,2
-0.896484375,2.00390625,0.24609375,3126288298,2
-0.716796875,2.12109375,0.486328125,3126288298,2
-0.728515625,2.185546875,0.36328125,3126288298,2
-0.66796875,2.25,0.3515625,3126288298,2
0.24609375,1.947265625,0.009765625,3126288298,2
0.1875,1.9921875,0.126953125,3126288298,2
0.126953125,2.03125,0.1953125,3126288298,2
0.064453125,2.0703125,0.248046875,3126288298,2
0.265625,2.083984375,0.337890625,3126288298,2
0.134765625,2.095703125,0.53515625,3126288298,2
0.0,2.16796875,0.42578125,3126288298,2
-0.64453125,2.16015625,0.41015625,3126288298,2
-0.65625,2.20703125,0.373046875,3126288298,2
-0.7421875,2.21875,0.396484375,3126288298,2
0.24609375,1.935546875,0.22265625,3126288298,2
0.1875,1.9765625,0.271484375,3126288298,2
0.19140625,2.015625,0.28515625,3126288298,2
0.26171875,2.037109375,0.36328125,3126288298,2
0.265625,2.033203125,0.568359375,3126288298,2
0.203125,2.01171875,0.779296875,3126288298,2
-0.068359375,2.14453125,0.525390625,3126288298,2
-0.64453125,2.166015625,0.375,3126288298,2
-0.65625,2.208984375,0.3515625,3126288298,2
-0.7421875,2.220703125,0.37890625,3126288298,2
-0.75390625,2.208984375,0.611328125,3126288298,2
0.1953125,2.01953125,0.486328125,3126288298,2
0.19921875,2.025390625,0.615234375,3126288298,2
0.203125,2.0078125,0.791015625,3126288298,2
-0.64453125,2.15625,0.427734375,3126288298,2
-0.65625,2.201171875,0.3984375,3126288298,2
-0.7421875,2.21875,0.400390625,3126288298,2
-0.904296875,2.173828125,0.533203125,3126288298,2
-0.716796875,2.12109375,0.484375,3126288298,2
-0.65625,2.189453125,0.46484375,3126288298,2
-0.7421875,2.212890625,0.4296875,3126288298,2
0.130859375,2.078125,0.13671875,3126288298,2
0.1328125,2.1171875,0.16796875,3126288298,2
0.255859375,2.009765625,0.279296875,3126288298,2
0.26171875,2.05078125,0.28515625,3126288298,2
0.265625,2.09765625,0.23046875,3126288298,2
-1.28125,2.0390625,-0.1484375,3126288298,2
-1.3046875,2.072265625,-0.16796875,3126288298,2
-0.255859375,1.990234375,-0.400390625,3126288298,2
0.390625,1.984375,0.513671875,3126288298,2
0.3984375,2.076171875,0.2421875,3126288298,2
-0.271484375,2.01171875,0.76171875,3126288298,2
-1.20703125,2.08984375,-0.025390625,3126288298,2
-1.2265625,2.125,-0.01953125,3126288298,2
-1.248046875,2.16015625,0.03515625,3126288298,2
0.123046875,1.958984375,0.068359375,3176287012,3
0.1875,1.994140625,0.05078125,3176287012,3
0.19140625,2.03515625,0.033203125,3176287012,3
0.130859375,2.08203125,0.03515625,3176287012,3
-0.796875,1.923828125,-0.435546875,3176287012,3
-0.134765625,1.904296875,1.029296875,3176287012,3
-0.068359375,2.0859375,0.72265625,3176287012,3
-1.111328125,1.96484375,0.728515625,3176287012,3
-1.20703125,1.998046875,0.615234375,3176287012,3
0.18359375,1.9453125,0.197265625,3176287012,3
0.1875,1.98046875,0.24609375,3176287012,3
0.126953125,2.017578125,0.314453125,3176287012,3
0.064453125,2.0234375,0.5,3176287012,3
0.3984375,2.08984375,-0.001953125,3176287012,3
0.271484375,2.140625,0.20703125,3176287012,3
-0.068359375,2.037109375,0.853515625,3176287012,3
-0.482421875,2.435546875,0.69140625,3176287012,3
0.123046875,1.9296875,0.337890625,3176287012,3
0.125,1.951171875,0.4453125,3176287012,3
0.19140625,1.939453125,0.623046875,3176287012,3
-0.326171875,2.00390625,-0.48046875,3176287012,3
0.19921875,2.078125,0.412109375,3176287012,3
0.134765625,2.107421875,0.4921875,3176287012,3
0.068359375,2.142578125,0.533203125,3176287012,3
-0.9140625,1.458984375,1.447265625,3176287012,3
-1.390625,0.953125,-2.001953125,3176287012,3
-1.412109375,0.87890625,-2.07421875,3176287012,3
0.0625,1.984375,0.26953125,3176287012,3
0.0,2.03125,0.2421875,3176287012,3
0.0,2.05859375,0.33984375,3176287012,3
0.06640625,2.060546875,0.52734375,3176287012,3
0.068359375,2.0859375,0.583984375,3176287012,3
0.0,2.142578125,0.53515625,3176287012,3
-0.9140625,1.220703125,1.654296875,3176287012,3
-1.412109375,1.009765625,-2.013671875,3176287012,3
0.19921875,2.09765625,0.287109375,3176287012,3
-0.9296875,0.93359375,-1.873046875,3176287012,3
-0.947265625,0.275390625,-2.11328125,3176287012,3
-1.408203125,0.0,-2.259765625,3176287012,3
-1.5078125,0.0,-2.2421875,3176287012,3
-0.984375,0.0,-2.150390625,3176287012,3
-1.001953125,0.23046875,-2.046875,3176287012,3
-1.01953125,0.0,-2.326171875,3176287012,3
-1.408203125,0.0,-2.02734375,3176287012,3
-1.5078125,0.0,-1.96875,3176287012,3
-1.0546875,0.0,-2.04296875,3176287012,3
-1.14453125,0.33984375,-1.955078125,3176287012,3
-1.3125,0.0,-2.123046875,3176287012,3
-1.408203125,0.0,-2.1171875,3176287012,3
-1.5078125,0.0,-2.134765625,3176287012,3
-0.859375,2.076171875,0.443359375,3176287012,3
-1.09375,2.01171875,0.443359375,3176287012,3
-1.111328125,2.04296875,0.462890625,3176287012,3
-1.20703125,2.037109375,0.46484375,3176287012,3
-1.03515625,0.0,-2.142578125,3176287012,3
-0.421875,2.171875,0.41015625,3176287012,3
-0.64453125,2.076171875,0.724609375,3176287012,3
-1.185546875,2.0078125,0.43359375,3176287012,3
-1.03515625,0.888671875,-1.736328125,3176287012,3
-0.4921875,2.17578125,0.29296875,3176287012,3
-0.64453125,2.150390625,0.458984375,3176287012,3
-1.3125,1.908203125,-0.28125,3176287012,3
-1.185546875,2.02734375,0.33203125,3176287012,3
-1.130859375,2.076171875,0.482421875,3176287012,3
0.060546875,1.951171875,0.212890625,3226215468,4
0.125,1.986328125,0.244140625,3226215468,4
0.19140625,2.025390625,0.216796875,3226215468,4
0.130859375,2.07421875,0.177734375,3226215468,4
0.06640625,2.125,-0.087890625,3226215468,4
0.0,1.876953125,1.083984375,3226215468,4
0.0,2.015625,0.904296875,3226215468,4
0.0,2.009765625,1.01171875,3226215468,4
-0.890625,2.123046875,0.57421875,3226215468,4
0.0,1.923828125,0.392578125,3226215468,4
0.0625,1.95703125,0.427734375,3226215468,4
0.126953125,2.0,0.404296875,3226215468,4
0.064453125,2.044921875,0.40625,3226215468,4
0.0,2.10546875,0.306640625,3226215468,4
-0.068359375,2.166015625,-0.0859375,3226215468,4
-0.966796875,1.96875,0.265625,3226215468,4
-0.9140625,2.03515625,0.291015625,3226215468,4
0.2734375,2.9921875,-3.18359375,3226215468,4
0.138671875,3.509765625,-2.6796875,3226215468,4
-0.060546875,1.880859375,0.560546875,3226215468,4
0.0625,1.91796875,0.576171875,3226215468,4
0.064453125,1.953125,0.603515625,3226215468,4
0.0,1.998046875,0.599609375,3226215468,4
-0.06640625,2.05859375,0.529296875,3226215468,4
0.126953125,1.990234375,0.45703125,3226215468,4
0.130859375,2.013671875,0.53125,3226215468,4
0.25,1.986328125,0.08984375,3226215468,4
0.255859375,2.02734375,0.09375,3226215468,4
0.1875,1.98046875,0.23828125,3226215468,4
0.19140625,2.01953125,0.259765625,3226215468,4
0.1953125,2.05859375,0.275390625,3226215468,4
-0.78125,1.75390625,0.115234375,3226215468,4
-0.736328125,1.81640625,0.1328125,3226215468,4
-0.841796875,1.728515625,0.0546875,3226215468,4
-0.796875,1.791015625,0.12109375,3226215468,4
-1.0859375,1.728515625,0.134765625,3226215468,4
-0.689453125,1.86328125,0.259765625,3226215468,4
-0.703125,1.900390625,0.283203125,3226215468,4
-0.203125,2.15625,0.10546875,3226215468,4
0.0,2.1953125,0.244140625,3226215468,4
-0.751953125,1.8359375,0.2890625,3226215468,4
-0.767578125,1.857421875,0.376953125,3226215468,4
-0.84765625,1.7734375,0.69921875,3226215468,4
-0.1328125,2.109375,0.234375,3226215468,4
-0.134765625,2.119140625,0.43359375,3226215468,4
0.0,2.15234375,0.498046875,3226215468,4
0.0,2.1875,0.52734375,3226215468,4
0.064453125,2.0078125,0.384765625,3226215468,4
0.26171875,2.017578125,0.4609375,3226215468,4
-0.19921875,2.072265625,0.43359375,3226215468,4
-0.068359375,1.984375,0.87109375,3226215468,4
0.068359375,2.072265625,0.763671875,3226215468,4
-0.7734375,2.11328125,0.037109375,3226215468,4
0.0,1.986328125,0.265625,3226215468,4
0.0,2.017578125,0.330078125,3226215468,4
0.064453125,2.044921875,0.412109375,3226215468,4
0.1328125,2.08203125,0.416015625,3226215468,4
0.203125,2.056640625,0.65234375,3226215468,4
0.20703125,2.0703125,0.7421875,3226215468,4
-0.7734375,2.1015625,0.2109375,3226215468,4
-0.796875,1.333984375,1.453125,3226215468,4
-0.8125,2.0078125,0.072265625,3226215468,4
-0.9140625,2.044921875,0.205078125,3226215468,4
0.0,1.91796875,-1.3984375,3226215468,4
-0.18359375,1.947265625,0.166015625,3276290253,5
-0.0625,1.990234375,0.2265625,3276290253,5
0.19140625,1.970703125,0.51171875,3276290253,5
0.130859375,1.97265625,0.66796875,3276290253,5
0.06640625,1.986328125,0.759765625,3276290253,5
0.0,2.048828125,0.708984375,3276290253,5
-0.896484375,63.9921875,0.318359375,3276290253,5
-0.9140625,2.033203125,0.30078125,3276290253,5
0.23828125,1.927734375,-1.630859375,3276290253,5
-0.564453125,2.359375,0.869140625,3276290253,5
0.0,2.974609375,-3.2109375,3276290253,5
0.25,1.951171875,0.384765625,3276290253,5
-0.3203125,1.298828125,-1.546875,3276290253,5
-0.130859375,1.888671875,0.875,3276290253,5
0.0,2.041015625,0.6015625,3276290253,5
0.0,2.0859375,0.58984375,3276290253,5
0.068359375,2.150390625,0.501953125,3276290253,5
-0.7734375,2.05859375,0.474609375,3276290253,5
-0.787109375,2.08203125,0.5390625,3276290253,5
-0.80078125,2.1171875,0.5546875,3276290253,5
-0.962890625,2.130859375,0.39453125,3276290253,5
-1.056640625,2.1328125,0.40234375,3276290253,5
-1.546875,4.197265625,0.486328125,3276290253,5
-0.1875,1.9921875,-0.103515625,3276290253,5
-0.255859375,2.0234375,-0.158203125,3276290253,5
-0.326171875,1.50390625,-1.408203125,3276290253,5
0.06640625,2.021484375,0.65625,3276290253,5
0.0,2.052734375,0.69921875,3276290253,5
0.0,2.111328125,0.650390625,3276290253,5
-0.787109375,2.013671875,0.755859375,3276290253,5
-0.728515625,2.021484375,0.90234375,3276290253,5
-1.037109375,2.048828125,0.595703125,3276290253,5
-1.20703125,2.01171875,0.5703125,3276290253,5
-1.533203125,4.16796875,0.3984375,3276290253,5
-1.546875,4.21875,0.24609375,3276290253,5
-0.1875,1.982421875,0.236328125,3276290253,5
-0.255859375,2.01171875,0.263671875,3276290253,5
-0.326171875,2.03125,0.345703125,3276290253,5
-0.689453125,2.05078125,0.447265625,3276290253,5
-0.7734375,2.095703125,0.263671875,3276290253,5
-0.859375,2.1171875,0.1640625,3276290253,5
-1.01953125,2.078125,0.28515625,3276290253,5
-1.111328125,2.060546875,0.380859375,3276290253,5
-1.20703125,2.037109375,0.46875,3276290253,5
-0.759765625,2.03125,0.421875,3276290253,5
-0.7734375,2.083984375,0.34765625,3276290253,5
-0.859375,2.09375,0.3515625,3276290253,5
-0.947265625,2.09375,0.392578125,3276290253,5
-1.037109375,2.08984375,0.431640625,3276290253,5
-1.20703125,2.03125,0.490234375,3276290253,5
-0.689453125,2.0703125,0.34375,3276290253,5
-0.84375,2.0625,0.3125,3276290253,5
-0.859375,2.0859375,0.400390625,3276290253,5
-0.947265625,2.091796875,0.41015625,3276290253,5
-1.037109375,2.087890625,0.443359375,3276290253,5
-1.130859375,2.06640625,0.521484375,3276290253,5
-0.896484375,2.017578125,-0.0703125,3276290253,5
-0.9140625,2.04296875,0.228515625,3276290253,5
-0.9296875,2.05859375,0.37890625,3276290253,5
-0.947265625,2.087890625,0.427734375,3276290253,5
-1.111328125,2.0390625,0.48046875,3276290253,5
-1.130859375,2.064453125,0.53515625,3276290253,5
-0.576171875,0.205078125,1.951171875,3276290253,5
-0.759765625,2.07421875,0.0078125,3276290253,5
-0.12109375,1.89453125,0.30078125,3326280281,6
-0.060546875,1.939453125,0.296875,3326280281,6
0.0,1.984375,0.27734375,3326280281,6
-0.064453125,2.025390625,0.28125,3326280281,6
-0.064453125,2.0625,0.302734375,3326280281,6
-0.06640625,2.1015625,0.318359375,3326280281,6
-0.8125,1.990234375,0.283203125,3326280281,6
0.0,1.951171875,0.4609375,3326280281,6
0.0,1.958984375,0.5859375,3326280281,6
0.0,1.96484375,0.701171875,3326280281,6
0.0,2.017578125,0.673828125,3326280281,6
0.0,2.08203125,0.60546875,3326280281,6
0.0,2.15234375,0.4921875,3326280281,6
-0.703125,2.12109375,0.265625,3326280281,6
-0.716796875,2.154296875,0.306640625,3326280281,6
-1.671875,4.080078125,0.666015625,3326280281,6
-1.546875,4.21875,0.24609375,3326280281,6
-1.419921875,4.3046875,0.255859375,3326280281,6
-0.064453125,1.95703125,0.716796875,3326280281,6
0.0,1.994140625,0.740234375,3326280281,6
-0.787109375,2.134765625,0.26171875,3326280281,6
-0.787109375,2.107421875,0.427734375,3326280281,6
-0.80078125,2.1328125,0.5,3326280281,6
-0.7421875,2.177734375,0.58203125,3326280281,6
-0.64453125,2.1953125,0.125,3326280281,6
-0.7421875,2.21484375,0.419921875,3326280281,6
-0.830078125,2.220703125,0.44921875,3326280281,6
-0.6328125,2.134765625,0.32421875,3326280281,6
-0.64453125,2.169921875,0.345703125,3326280281,6
-0.58203125,2.18359375,0.57421875,3326280281,6
-0.890625,2.16796875,0.373046875,3326280281,6
-1.056640625,2.142578125,0.349609375,3326280281,6
-1.150390625,2.130859375,0.3984375,3326280281,6
-1.248046875,2.099609375,0.515625,3326280281,6
-0.6328125,2.1328125,0.3359375,3326280281,6
-0.64453125,2.16015625,0.408203125,3326280281,6
-1.166015625,2.01171875,-0.166015625,3326280281,6
-1.037109375,2.115234375,0.279296875,3326280281,6
-1.130859375,2.10546875,0.33984375,3326280281,6
-1.150390625,2.125,0.427734375,3326280281,6
-1.248046875,2.072265625,0.61328125,3326280281,6
-0.6328125,2.126953125,0.369140625,3326280281,6
-0.64453125,2.162109375,0.39453125,3326280281,6
-1.09375,2.0546875,0.15234375,3326280281,6
-1.111328125,2.068359375,0.33984375,3326280281,6
-1.20703125,2.060546875,0.35546875,3326280281,6
-1.2265625,2.091796875,0.376953125,3326280281,6
-1.248046875,2.107421875,0.474609375,3326280281,6
-0.3515625,0.931640625,-2.017578125,3326280281,6
-0.357421875,0.92578125,-2.064453125,3326280281,6
-0.365234375,0.927734375,-2.107421875,3326280281,6
-0.890625,0.984375,-1.966796875,3326280281,6
-0.904296875,0.900390625,-2.048828125,3326280281,6
-0.919921875,0.900390625,-2.08984375,3326280281,6
-1.013671875,0.873046875,-2.10546875,3326280281,6
-0.421875,1.197265625,-1.857421875,3326280281,6
-0.357421875,1.28125,-1.865234375,3326280281,6
-0.365234375,1.34375,-1.869140625,3326280281,6
-0.962890625,1.138671875,-1.84375,3326280281,6
-0.904296875,0.765625,-2.1015625,3326280281,6
-0.919921875,0.734375,-2.154296875,3326280281,6
-0.935546875,0.70703125,-2.203125,3326280281,6
-0.3515625,0.90625,-2.029296875,3326280281,6
-0.4296875,0.88671875,-2.068359375,3326280281,6
