0.3125,1.9609375,0.26953125,3861102757,1
0.255859375,1.998046875,0.349609375,3861102757,1
0.064453125,2.064453125,0.294921875,3861102757,1
0.265625,1.80859375,1.0859375,3861102757,1
0.203125,2.09765625,0.51171875,3861102757,1
0.20703125,2.154296875,0.447265625,3861102757,1
-0.9140625,2.03125,0.3125,3861102757,1
-1.001953125,2.029296875,0.357421875,3861102757,1
0.3125,1.970703125,0.19140625,3861102757,1
0.3203125,2.0078125,0.22265625,3861102757,1
0.26171875,2.048828125,0.291015625,3861102757,1
0.0,2.087890625,0.40625,3861102757,1
0.068359375,2.138671875,0.34765625,3861102757,1
0.0,2.1953125,0.244140625,3861102757,1
0.0,2.244140625,0.166015625,3861102757,1
-1.185546875,2.033203125,0.291015625,3861102757,1
-0.138671875,3.236328125,-3.00390625,3861102757,1
-1.671875,4.05859375,0.783203125,3861102757,1
0.3125,1.96484375,0.24609375,3861102757,1
0.3203125,2.005859375,0.236328125,3861102757,1
0.130859375,2.0390625,0.423828125,3861102757,1
0.0,2.0703125,0.484375,3861102757,1
0.0,2.119140625,0.45703125,3861102757,1
0.0,2.158203125,0.466796875,3861102757,1
-0.0703125,2.173828125,0.576171875,3861102757,1
-1.111328125,2.07421875,0.3046875,3861102757,1
-1.404296875,6.265625,-0.109375,3861102757,1
0.3203125,2.001953125,0.265625,3861102757,1
0.0,1.958984375,0.716796875,3861102757,1
0.0,2.03515625,0.619140625,3861102757,1
0.0,2.09375,0.56640625,3861102757,1
0.0,2.134765625,0.5703125,3861102757,1
-1.1953125,1.869140625,-0.37890625,3861102757,1
-1.14453125,1.95703125,-0.32421875,3861102757,1
-0.06640625,2.037109375,0.607421875,3861102757,1
0.0,2.09375,0.560546875,3861102757,1
-1.173828125,1.87109375,0.033203125,3861102757,1
-1.1953125,1.90625,-0.029296875,3861102757,1
-1.216796875,1.94140625,-0.03125,3861102757,1
0.0,2.0859375,0.060546875,3861102757,1
-0.064453125,2.04296875,0.080078125,3861102757,1
-0.130859375,2.076171875,0.158203125,3861102757,1
0.1328125,2.08984375,0.376953125,3861102757,1
0.064453125,2.03515625,-0.18359375,3861102757,1
0.0,2.056640625,-0.349609375,3861102757,1
-0.19921875,2.037109375,-0.576171875,3861102757,1
0.40625,2.046875,0.58984375,3861102757,1
0.345703125,2.146484375,0.392578125,3861102757,1
0.2109375,2.208984375,0.369140625,3861102757,1
-0.9296875,2.015625,0.56640625,3861102757,1
-1.111328125,2.025390625,0.5390625,3861102757,1
-1.20703125,2.060546875,0.353515625,3861102757,1
0.25,1.982421875,0.1640625,3861102757,1
0.126953125,2.0390625,0.078125,3861102757,1
0.0,2.0859375,0.015625,3861102757,1
0.06640625,2.1015625,0.3203125,3861102757,1
0.337890625,2.02734375,0.6875,3861102757,1
0.275390625,2.134765625,0.49609375,3861102757,1
0.28125,2.181640625,0.470703125,3861102757,1
-0.9296875,1.970703125,0.703125,3861102757,1
-1.01953125,1.978515625,0.693359375,3861102757,1
-1.037109375,2.03125,0.65234375,3861102757,1
0.0703125,2.234375,0.259765625,3861102757,1
-0.828125,1.365234375,1.525390625,3861102757,1
0.0,1.947265625,0.25390625,3911140167,2
0.0,1.9921875,0.216796875,3911140167,2
0.0,2.041015625,0.134765625,3911140167,2
0.0,2.083984375,0.076171875,3911140167,2
-0.06640625,2.125,0.0390625,3911140167,2
0.271484375,1.8671875,1.0703125,3911140167,2
0.275390625,1.888671875,1.11328125,3911140167,2
0.28125,1.86328125,1.228515625,3911140167,2
0.0,2.017578125,0.333984375,3911140167,2
0.064453125,2.044921875,0.40625,3911140167,2
-0.19921875,1.59375,1.39453125,3911140167,2
0.271484375,1.978515625,0.84375,3911140167,2
0.20703125,2.048828125,0.798828125,3911140167,2
-1.1953125,1.896484375,-0.185546875,3911140167,2
-1.14453125,1.984375,0.02734375,3911140167,2
-1.09375,2.046875,0.232421875,3911140167,2
-0.13671875,3.27734375,-2.896484375,3911140167,2
-0.4140625,3.802734375,-2.2109375,3911140167,2
-2.369140625,2.794921875,2.54296875,3911140167,2
0.0,1.955078125,0.837890625,3911140167,2
0.068359375,2.0546875,0.6875,3911140167,2
0.138671875,2.115234375,0.62109375,3911140167,2
0.140625,2.119140625,0.7421875,3911140167,2
-1.07421875,1.984375,0.400390625,3911140167,2
-1.01953125,1.95703125,0.751953125,3911140167,2
-0.962890625,1.986328125,0.8671875,3911140167,2
-1.2421875,4.236328125,0.158203125,3911140167,2
-1.60546875,6.21875,-0.017578125,3911140167,2
-0.06640625,2.01953125,0.666015625,3911140167,2
0.0,2.078125,0.615234375,3911140167,2
0.0,2.123046875,0.609375,3911140167,2
-0.0703125,2.13671875,0.701171875,3911140167,2
-0.9296875,1.947265625,0.767578125,3911140167,2
-1.01953125,1.873046875,0.943359375,3911140167,2
0.0,2.05078125,0.56640625,3911140167,2
-0.068359375,2.068359375,0.64453125,3911140167,2
-0.068359375,2.103515625,0.66796875,3911140167,2
-0.0703125,2.1328125,0.71484375,3911140167,2
-0.06640625,1.990234375,0.74609375,3911140167,2
-0.068359375,2.0,0.8359375,3911140167,2
-0.138671875,2.080078125,0.732421875,3911140167,2
-0.0703125,2.1953125,0.484375,3911140167,2
0.19921875,2.0625,0.482421875,3911140167,2
0.40625,2.0703125,0.5,3911140167,2
-0.068359375,2.138671875,0.546875,3911140167,2
0.0703125,2.203125,0.451171875,3911140167,2
0.142578125,2.22265625,0.537109375,3911140167,2
0.46484375,2.06640625,0.203125,3911140167,2
0.54296875,2.099609375,-0.025390625,3911140167,2
-0.138671875,2.078125,0.734375,3911140167,2
0.140625,2.1875,0.505859375,3911140167,2
0.21484375,2.23828125,0.44140625,3911140167,2
0.130859375,1.173828125,-1.71875,3911140167,2
0.19921875,1.365234375,-1.619140625,3911140167,2
0.134765625,1.599609375,-1.458984375,3911140167,2
0.138671875,1.87109375,-1.1640625,3911140167,2
0.703125,1.193359375,-1.7734375,3911140167,2
0.64453125,1.326171875,-1.75390625,3911140167,2
0.0,1.984375,-0.767578125,3911140167,2
0.677734375,0.5,-1.998046875,3911140167,2
0.62109375,0.91796875,-1.91015625,3911140167,2
0.5625,1.13671875,-1.859375,3911140167,2
0.572265625,1.29296875,-1.802734375,3911140167,2
0.130859375,0.931640625,1.861328125,3911140167,2
0.0,2.0,0.134765625,3961138453,3
0.064453125,2.01953125,0.3125,3961138453,3
0.130859375,2.0390625,0.419921875,3961138453,3
0.1328125,2.0703125,0.46875,3961138453,3
0.271484375,2.09765625,0.48046875,3961138453,3
0.482421875,2.09375,0.509765625,3961138453,3
0.421875,2.03515625,0.861328125,3961138453,3
-1.001953125,2.056640625,0.115234375,3961138453,3
-1.01953125,2.08203125,0.2421875,3961138453,3
0.0625,1.98046875,0.3046875,3961138453,3
0.064453125,2.009765625,0.376953125,3961138453,3
0.0,2.01953125,0.521484375,3961138453,3
0.06640625,1.9921875,0.7421875,3961138453,3
0.068359375,2.001953125,0.83203125,3961138453,3
0.138671875,2.09765625,0.67578125,3961138453,3
-1.1953125,1.810546875,0.59375,3961138453,3
-0.9296875,2.05859375,0.3828125,3961138453,3
-0.947265625,2.05859375,0.552734375,3961138453,3
0.064453125,1.9921875,0.458984375,3961138453,3
0.064453125,1.9765625,0.6640625,3961138453,3
0.06640625,1.939453125,0.87109375,3961138453,3
0.134765625,1.966796875,0.900390625,3961138453,3
0.275390625,2.0390625,0.802734375,3961138453,3
0.3515625,2.06640625,0.81640625,3961138453,3
-1.001953125,2.0234375,0.388671875,3961138453,3
-1.01953125,1.974609375,0.703125,3961138453,3
-1.037109375,1.9765625,0.80078125,3961138453,3
-1.03515625,1.87109375,0.556640625,3961138453,3
-1.0546875,1.970703125,0.263671875,3961138453,3
-1.07421875,2.00390625,0.279296875,3961138453,3
-1.09375,1.982421875,0.5625,3961138453,3
-1.037109375,1.99609375,0.751953125,3961138453,3
-1.056640625,1.9921875,0.861328125,3961138453,3
-4.87890625,7.15625,-0.451171875,3961138453,3
-1.125,1.9140625,0.365234375,3961138453,3
-1.14453125,1.955078125,0.3359375,3961138453,3
-1.166015625,1.962890625,0.474609375,3961138453,3
-1.111328125,1.978515625,0.689453125,3961138453,3
-0.474609375,0.3515625,-2.0859375,3961138453,3
-0.482421875,0.447265625,-2.109375,3961138453,3
0.337890625,2.095703125,0.443359375,3961138453,3
0.345703125,2.140625,0.421875,3961138453,3
0.3515625,2.171875,-0.470703125,3961138453,3
0.287109375,1.923828125,-1.2109375,3961138453,3
-0.203125,2.15625,-0.09375,3961138453,3
-0.20703125,2.19140625,-0.19140625,3961138453,3
-0.2109375,2.228515625,-0.23046875,3961138453,3
-0.21484375,2.267578125,-0.25,3961138453,3
-0.1328125,2.11328125,0.1953125,3961138453,3
-0.134765625,2.16015625,0.11328125,3961138453,3
-0.20703125,2.19921875,0.01953125,3961138453,3
0.5625,2.126953125,0.47265625,3961138453,3
0.572265625,2.19140625,0.345703125,3961138453,3
-0.1328125,2.1015625,0.3046875,3961138453,3
-0.134765625,2.154296875,0.193359375,3961138453,3
-0.138671875,2.205078125,0.01953125,3961138453,3
0.4921875,2.150390625,0.443359375,3961138453,3
0.501953125,2.212890625,0.310546875,3961138453,3
-0.1328125,2.08984375,0.37109375,3961138453,3
-0.134765625,2.158203125,0.1640625,3961138453,3
0.4140625,2.103515625,0.529296875,3961138453,3
0.4921875,2.16015625,0.39453125,3961138453,3
0.501953125,2.208984375,0.33984375,3961138453,3
-0.19921875,2.064453125,0.470703125,3961138453,3
0.123046875,1.927734375,0.353515625,4011135950,4
0.1875,1.962890625,0.36328125,4011135950,4
0.19140625,1.998046875,0.392578125,4011135950,4
0.130859375,2.0390625,0.423828125,4011135950,4
0.19921875,2.0625,0.482421875,4011135950,4
0.203125,2.072265625,0.6015625,4011135950,4
0.068359375,2.138671875,0.548828125,4011135950,4
-0.984375,2.013671875,0.189453125,4011135950,4
-1.07421875,2.009765625,0.2421875,4011135950,4
-0.265625,4.244140625,-0.099609375,4011135950,4
-0.267578125,4.287109375,-0.013671875,4011135950,4
-0.134765625,4.33203125,0.140625,4011135950,4
-0.2734375,4.341796875,0.482421875,4011135950,4
0.0625,2.00390625,-0.015625,4011135950,4
0.064453125,1.9921875,0.4609375,4011135950,4
0.0,1.939453125,0.767578125,4011135950,4
-0.06640625,1.953125,0.837890625,4011135950,4
0.068359375,1.96484375,0.916015625,4011135950,4
0.138671875,1.84765625,1.201171875,4011135950,4
-0.984375,1.9453125,0.556640625,4011135950,4
-1.001953125,2.00390625,0.478515625,4011135950,4
-0.265625,4.240234375,0.21875,4011135950,4
-0.267578125,4.279296875,0.2421875,4011135950,4
-0.271484375,4.3125,0.357421875,4011135950,4
-0.2734375,4.318359375,0.66015625,4011135950,4
-0.275390625,4.322265625,0.873046875,4011135950,4
0.1875,1.970703125,0.31640625,4011135950,4
0.0,1.833984375,0.904296875,4011135950,4
0.0,1.716796875,1.18359375,4011135950,4
0.0,1.830078125,1.08203125,4011135950,4
0.134765625,1.908203125,1.01953125,4011135950,4
-1.103515625,1.892578125,-0.279296875,4011135950,4
-0.9296875,1.814453125,1.04296875,4011135950,4
-0.265625,4.228515625,0.38671875,4011135950,4
-0.267578125,4.26171875,0.4609375,4011135950,4
-0.134765625,4.29296875,0.591796875,4011135950,4
-0.2734375,4.263671875,0.951171875,4011135950,4
-0.3125,0.810546875,1.806640625,4011135950,4
-0.3203125,0.583984375,1.93359375,4011135950,4
-0.326171875,0.564453125,1.982421875,4011135950,4
-1.03515625,1.94921875,0.095703125,4011135950,4
-1.0546875,1.986328125,0.060546875,4011135950,4
-0.3125,0.908203125,-1.7578125,4011135950,4
0.3828125,2.0078125,-0.037109375,4011135950,4
0.064453125,1.6484375,-1.27734375,4011135950,4
-0.19921875,1.099609375,-1.810546875,4011135950,4
-0.203125,1.068359375,-1.875,4011135950,4
-0.130859375,0.908203125,-1.873046875,4011135950,4
-0.19921875,1.044921875,-1.841796875,4011135950,4
-0.271484375,1.0234375,-1.892578125,4011135950,4
0.126953125,1.107421875,-1.71484375,4011135950,4
0.064453125,1.09765625,-1.7734375,4011135950,4
-0.06640625,1.208984375,-1.75,4011135950,4
-0.337890625,1.1640625,-1.796875,4011135950,4
0.19140625,1.115234375,-1.705078125,4011135950,4
0.1953125,0.705078125,-1.953125,4011135950,4
0.19921875,0.798828125,1.9609375,4011135950,4
0.3203125,2.017578125,0.119140625,4011135950,4
0.326171875,2.05078125,0.208984375,4011135950,4
0.33203125,2.087890625,0.23828125,4011135950,4
0.337890625,2.12890625,0.23046875,4011135950,4
0.3125,1.98046875,0.009765625,4011135950,4
0.255859375,2.02734375,0.091796875,4011135950,4
0.1953125,2.064453125,0.220703125,4011135950,4
0.0,1.9375,0.31640625,4061142403,5
0.0,1.986328125,0.26171875,4061142403,5
0.0,2.013671875,0.35546875,4061142403,5
0.0,1.94140625,0.763671875,4061142403,5
-0.06640625,2.013671875,0.685546875,4061142403,5
0.271484375,2.150390625,-0.0703125,4061142403,5
0.20703125,2.1796875,0.296875,4061142403,5
-0.134765625,4.255859375,0.556640625,4061142403,5
-0.134765625,4.296875,0.560546875,4061142403,5
-0.060546875,1.962890625,-0.029296875,4061142403,5
-0.0625,2.00390625,-0.03125,4061142403,5
0.064453125,2.04296875,0.04296875,4061142403,5
0.064453125,2.08203125,0.1015625,4061142403,5
0.1328125,2.072265625,0.462890625,4061142403,5
0.203125,2.078125,0.583984375,4061142403,5
0.275390625,2.0859375,0.671875,4061142403,5
0.0,1.921875,0.076171875,4061142403,5
0.0,1.962890625,0.06640625,4061142403,5
0.0,2.00390625,0.052734375,4061142403,5
0.0,2.04296875,0.0859375,4061142403,5
0.0,2.080078125,0.171875,4061142403,5
0.0,2.10546875,0.30078125,4061142403,5
0.203125,2.033203125,0.7265625,4061142403,5
0.0,1.91796875,0.138671875,4061142403,5
0.0,1.955078125,0.185546875,4061142403,5
0.0,1.99609375,0.19140625,4061142403,5
0.0,2.03515625,0.201171875,4061142403,5
0.0,2.06640625,0.2890625,4061142403,5
0.0,2.076171875,0.462890625,4061142403,5
0.0,1.9609375,0.11328125,4061142403,5
-0.0625,1.99609375,0.16796875,4061142403,5
-0.064453125,2.037109375,0.1796875,4061142403,5
0.0,2.068359375,0.267578125,4061142403,5
0.0,2.10546875,0.30859375,4061142403,5
-0.068359375,2.146484375,0.29296875,4061142403,5
0.0,2.05859375,0.333984375,4061142403,5
0.0,2.099609375,0.3359375,4061142403,5
-1.38671875,6.173828125,-0.388671875,4061142403,5
-1.595703125,6.171875,-0.30859375,4061142403,5
-1.5859375,6.138671875,-0.115234375,4061142403,5
-1.595703125,6.177734375,0.041015625,4061142403,5
0.390625,2.048828125,0.033203125,4061142403,5
0.0625,2.00390625,-0.013671875,4061142403,5
0.255859375,2.029296875,0.033203125,4061142403,5
0.326171875,2.056640625,0.130859375,4061142403,5
0.060546875,1.9609375,0.099609375,4061142403,5
0.125,1.998046875,0.087890625,4061142403,5
0.126953125,2.0390625,0.111328125,4061142403,5
0.26171875,2.0625,0.171875,4061142403,5
0.25,1.98828125,0.0546875,4061142403,5
0.19921875,2.087890625,0.349609375,4061142403,5
0.271484375,2.142578125,0.1953125,4061142403,5
-1.2265625,0.181640625,-2.3046875,4061142403,5
0.125,1.998046875,0.109375,4061142403,5
0.064453125,2.04296875,0.041015625,4061142403,5
0.0,2.0546875,-0.3671875,4061142403,5
0.265625,2.06640625,0.427734375,4061142403,5
0.203125,2.130859375,0.341796875,4061142403,5
-1.03515625,1.9375,-0.228515625,4061142403,5
0.0,2.013671875,160.35546875,4061142403,5
0.064453125,2.064453125,0.291015625,4061142403,5
0.06640625,2.0234375,0.650390625,4061142403,5
0.0,2.05859375,0.6796875,4061142403,5
0.20703125,2.16796875,0.37109375,4061142403,5
0.0,1.921875,-0.015625,4111134833,6
0.0,1.962890625,0.0234375,4111134833,6
0.0,2.00390625,0.01171875,4111134833,6
0.126953125,2.005859375,0.3828125,4111134833,6
0.064453125,2.025390625,0.49609375,4111134833,6
0.0,2.05859375,0.53515625,4111134833,6
0.068359375,2.134765625,0.375,4111134833,6
0.138671875,2.197265625,0.16796875,4111134833,6
-1.1953125,1.841796875,0.4921875,4111134833,6
-1.216796875,1.865234375,0.537109375,4111134833,6
-1.23828125,1.908203125,0.509765625,4111134833,6
-1.185546875,2.00390625,0.451171875,4111134833,6
-1.20703125,2.025390625,0.517578125,4111134833,6
-0.677734375,4.279296875,0.158203125,4111134833,6
-0.8203125,4.29296875,-0.2421875,4111134833,6
-0.966796875,4.30078125,0.287109375,4111134833,6
0.0,1.919921875,0.109375,4111134833,6
-0.060546875,1.95703125,0.134765625,4111134833,6
0.0,1.998046875,0.158203125,4111134833,6
0.126953125,1.98046875,0.494140625,4111134833,6
0.064453125,1.984375,0.640625,4111134833,6
0.0,2.029296875,0.634765625,4111134833,6
0.068359375,2.1015625,0.525390625,4111134833,6
0.068359375,2.15234375,0.48828125,4111134833,6
0.140625,2.197265625,0.4609375,4111134833,6
-0.689453125,4.0546875,1.611328125,4111134833,6
-0.060546875,1.912109375,0.197265625,4111134833,6
-0.060546875,1.943359375,0.26953125,4111134833,6
0.0,1.970703125,0.369140625,4111134833,6
0.447265625,1.9921875,0.10546875,4111134833,6
0.521484375,2.01953125,0.03515625,4111134833,6
-0.06640625,1.890625,0.97265625,4111134833,6
-0.068359375,2.0390625,0.734375,4111134833,6
0.0,2.10546875,0.669921875,4111134833,6
0.0,2.177734375,0.564453125,4111134833,6
0.0,1.91015625,0.455078125,4111134833,6
0.375,1.9609375,0.171875,4111134833,6
0.447265625,1.970703125,0.318359375,4111134833,6
0.45703125,1.984375,0.44921875,4111134833,6
0.46484375,1.98046875,0.623046875,4111134833,6
-0.203125,2.001953125,0.80859375,4111134833,6
0.4375,1.927734375,0.33203125,4111134833,6
0.447265625,1.92578125,0.5234375,4111134833,6
0.390625,1.91796875,0.720703125,4111134833,6
-0.19921875,2.11328125,0.14453125,4111134833,6
-0.068359375,2.09765625,0.541015625,4111134833,6
-0.068359375,2.15234375,0.494140625,4111134833,6
0.0,2.205078125,0.44921875,4111134833,6
0.375,1.953125,0.24609375,4111134833,6
0.3203125,1.986328125,0.369140625,4111134833,6
-0.130859375,2.068359375,0.244140625,4111134833,6
-0.06640625,2.05859375,0.52734375,4111134833,6
0.0,2.060546875,0.677734375,4111134833,6
0.0,2.068359375,0.775390625,4111134833,6
0.0,2.154296875,0.6484375,4111134833,6
0.375,1.953125,0.248046875,4111134833,6
0.3203125,2.00390625,0.2578125,4111134833,6
0.1953125,2.064453125,0.236328125,4111134833,6
0.33203125,2.09765625,0.125,4111134833,6
0.40625,2.109375,0.2890625,4111134833,6
0.4140625,2.125,0.435546875,4111134833,6
0.326171875,2.060546875,0.017578125,4111134833,6
0.33203125,2.1015625,-0.029296875,4111134833,6
0.337890625,2.140625,0.048828125,4111134833,6
