0.130859375,2.07421875,-0.19140625,3541387962,268
0.1328125,2.1171875,-0.146484375,3541387962,268
0.203125,2.158203125,0.046875,3541387962,268
-0.896484375,1.962890625,0.47265625,3541387962,268
-0.9140625,1.978515625,0.5546875,3541387962,268
-0.9296875,2.0078125,0.58984375,3541387962,268
-1.01953125,1.92578125,0.828125,3541387962,268
-1.07421875,2.203125,0.13671875,3541387962,268
-0.935546875,2.3125,-0.07421875,3541387962,268
-0.126953125,2.041015625,0.0703125,3541387962,268
0.0,2.0859375,-0.01171875,3541387962,268
0.1328125,2.119140625,-0.125,3541387962,268
0.203125,2.15625,-0.078125,3541387962,268
0.138671875,2.203125,0.083984375,3541387962,268
-0.125,1.998046875,0.091796875,3541387962,268
-0.064453125,2.04296875,0.068359375,3541387962,268
-0.064453125,2.083984375,0.076171875,3541387962,268
-0.06640625,2.123046875,0.11328125,3541387962,268
0.0,2.1640625,0.115234375,3541387962,268
0.0,2.205078125,0.1328125,3541387962,268
-0.4921875,2.115234375,0.587890625,3541387962,268
0.0,2.34765625,0.341796875,3541387962,268
-0.0625,1.990234375,0.228515625,3541387962,268
-0.064453125,2.03515625,0.1875,3541387962,268
-0.064453125,2.076171875,0.201171875,3541387962,268
-0.06640625,2.11328125,0.234375,3541387962,268
-0.068359375,2.1484375,0.279296875,3541387962,268
-0.20703125,2.169921875,0.357421875,3541387962,268
-0.28125,2.2109375,0.30859375,3541387962,268
-0.544921875,2.421875,0.2421875,3541387962,268
-0.125,1.970703125,0.341796875,3541387962,268
-0.126953125,1.99609375,0.42578125,3541387962,268
0.0,2.0546875,0.365234375,3541387962,268
-0.06640625,2.08984375,0.39453125,3541387962,268
-0.068359375,2.12109375,0.443359375,3541387962,268
-0.138671875,2.150390625,0.482421875,3541387962,268
-0.125,1.953125,0.4296875,3541387962,268
-0.19140625,1.99609375,0.408203125,3541387962,268
-0.26171875,2.04296875,0.328125,3541387962,268
-0.33203125,2.05859375,0.41796875,3541387962,268
-0.337890625,2.125,0.265625,3541387962,268
-0.509765625,0.0,2.310546875,3541387962,268
-0.4453125,0.984375,-2.11328125,3541387962,268
-0.25,1.849609375,0.728515625,3541387962,268
-0.255859375,1.9453125,0.578125,3541387962,268
-0.1953125,2.0234375,0.466796875,3541387962,268
-0.19921875,1.9921875,0.71484375,3541387962,268
-0.203125,2.01953125,0.76171875,3541387962,268
-0.275390625,2.076171875,0.705078125,3541387962,268
-0.4453125,1.1484375,-2.029296875,3541387962,268
0.060546875,1.958984375,0.1015625,3541387962,268
0.0,1.994140625,0.203125,3541387962,268
-0.1328125,2.0,0.7109375,3541387962,268
0.240234375,0.662109375,-1.7890625,3541387962,268
0.24609375,0.8515625,-1.751953125,3541387962,268
0.25,0.962890625,-1.740234375,3541387962,268
-0.4296875,1.072265625,-1.978515625,3541387962,268
-0.509765625,0.091796875,-2.2734375,3541387962,268
-0.890625,0.62109375,-2.109375,3541387962,268
-0.904296875,0.0,2.275390625,3541387962,268
0.240234375,0.76953125,-1.744140625,3541387962,268
0.306640625,0.86328125,-1.736328125,3541387962,268
0.25,0.853515625,-1.796875,3541387962,268
-0.962890625,1.3515625,-1.6953125,3541387962,268
-0.716796875,1.951171875,0.181640625,3591380346,269
-0.73046875,1.95703125,0.400390625,3591380346,269
-0.8125,1.783203125,0.9296875,3591380346,269
-0.966796875,1.9765625,-0.1953125,3591380346,269
-1.0546875,1.96484375,-0.30078125,3591380346,269
-0.716796875,0.876953125,1.9921875,3591380346,269
-0.947265625,0.37890625,-2.09765625,3591380346,269
-1.037109375,0.974609375,-1.8984375,3591380346,269
-1.130859375,0.0,-2.16015625,3591380346,269
-0.84375,1.705078125,1.55078125,3591380346,269
-0.857421875,2.06640625,1.103515625,3591380346,269
-0.783203125,1.921875,22.71484375,3591380346,269
41.49609375,-57.494140625,23.0,3591380346,269
57.49609375,-56.494140625,22.5,3591380346,269
39.49609375,-46.494140625,23.0,3591380346,269
48.49609375,-43.494140625,27.5,3591380346,269
54.498046875,-48.9921875,28.0,3591380346,269
-62.001953125,-55.9921875,27.5,3591380346,269
48.498046875,-13.4921875,28.0,3591380346,269
59.498046875,-16.9921875,28.5,3591380346,269
-61.501953125,-12.9921875,25.5,3591380346,269
-16.50390625,-7.494140625,26.498046875,3591380346,269
-8.50390625,-44.994140625,27.498046875,3591380346,269
5.49609375,-40.9921875,27.5,3591380346,269
2.49609375,17.0078125,28.001953125,3591380346,269
-4.50390625,-60.494140625,23.501953125,3591380346,269
-25.501953125,-52.494140625,25.0,3591380346,269
-28.00390625,40.505859375,25.5,3591380346,269
-16.50390625,10.005859375,26.0,3591380346,269
-14.50390625,-25.994140625,27.498046875,3591380346,269
-4.50390625,-28.994140625,28.0,3591380346,269
-25.50390625,-12.994140625,28.501953125,3591380346,269
-29.00390625,-0.994140625,22.501953125,3591380346,269
36.99609375,51.505859375,22.5,3591380346,269
53.498046875,-30.99609375,26.00390625,3591380346,269
-58.001953125,45.005859375,25.50390625,3591380346,269
42.498046875,-61.994140625,26.00390625,3591380346,269
-62.501953125,51.505859375,1.00390625,3591380346,269
2.513671875,1.0,32.001953125,3591380346,269
0.5,0.0,-12.0,3591380346,269
0.5,0.0,0.5,3591380346,269
32.0,4.5,23.5,3591380346,269
-53.501953125,46.005859375,24.001953125,3591380346,269
-20.001953125,-28.494140625,24.5,3591380346,269
-5.501953125,48.505859375,25.498046875,3591380346,269
-46.001953125,21.505859375,25.99609375,3591380346,269
14.998046875,28.5078125,26.0,3591380346,269
-0.501953125,39.005859375,26.501953125,3591380346,269
1.998046875,54.5078125,28.001953125,3591380346,269
25.99609375,18.0078125,28.501953125,3591380346,269
30.99609375,12.5078125,29.001953125,3591380346,269
3.49609375,-49.4921875,23.501953125,3591380346,269
-30.001953125,-61.494140625,24.0,3591380346,269
-13.001953125,47.005859375,24.5,3591380346,269
0.498046875,-6.4921875,25.498046875,3591380346,269
10.998046875,-1.4921875,25.998046875,3591380346,269
10.498046875,-20.9921875,26.0,3591380346,269
-29.501953125,-4.494140625,26.501953125,3591380346,269
-40.001953125,34.505859375,28.00390625,3591380346,269
12.49609375,42.0078125,28.501953125,3591380346,269
4.99609375,-57.4921875,29.001953125,3591380346,269
-48.50390625,50.005859375,29.50390625,3591380346,269
-59.005859375,54.50390625,23.505859375,3591380346,269
0.494140625,45.5,24.4921875,3591380346,269
-0.05859375,1.87890625,0.095703125,659334117,2
-0.060546875,1.919921875,0.078125,659334117,2
0.0,1.958984375,0.123046875,659334117,2
0.0,1.990234375,0.2421875,659334117,2
-0.126953125,1.9921875,0.44140625,659334117,2
-0.130859375,2.021484375,0.5,659334117,2
-0.1328125,1.943359375,0.85546875,659334117,2
-0.068359375,1.91015625,1.0234375,659334117,2
-0.84375,2.21484375,0.638671875,659334117,2
-0.1171875,1.873046875,0.142578125,659334117,2
-0.12109375,1.91796875,0.080078125,659334117,2
-0.123046875,1.958984375,0.03515625,659334117,2
-0.125,2.0,0.013671875,659334117,2
-0.126953125,2.037109375,0.123046875,659334117,2
-0.130859375,2.078125,0.119140625,659334117,2
-0.796875,1.955078125,-0.255859375,659334117,2
-0.84375,2.189453125,0.72265625,659334117,2
-0.1171875,1.87109375,0.150390625,659334117,2
-0.1796875,1.9140625,-0.03125,659334117,2
-0.306640625,1.87109375,-0.513671875,659334117,2
-0.375,1.783203125,-0.833984375,659334117,2
-0.19140625,2.025390625,-0.2109375,659334117,2
-0.783203125,1.92578125,0.171875,659334117,2
-0.86328125,1.943359375,-0.021484375,659334117,2
-0.84375,2.193359375,0.708984375,659334117,2
-0.240234375,1.90625,-0.05859375,659334117,2
-0.24609375,1.9140625,-0.361328125,659334117,2
-0.375,1.83984375,-0.701171875,659334117,2
-0.447265625,1.8046875,-0.853515625,659334117,2
-0.978515625,1.828125,0.228515625,659334117,2
-0.86328125,1.919921875,0.298828125,659334117,2
-0.66015625,0.552734375,-1.71875,659334117,2
-0.61328125,0.587890625,-1.76953125,659334117,2
-0.564453125,0.8125,-1.7421875,659334117,2
-0.576171875,0.841796875,-1.7734375,659334117,2
-0.6015625,0.76171875,-1.66015625,659334117,2
-0.552734375,0.88671875,-1.662109375,659334117,2
-0.564453125,0.984375,-1.65234375,659334117,2
-0.576171875,0.775390625,-1.802734375,659334117,2
-0.6015625,0.986328125,-1.537109375,659334117,2
-0.552734375,1.0859375,-1.541015625,659334117,2
-0.626953125,1.109375,-1.546875,659334117,2
-0.541015625,0.837890625,-1.64453125,659334117,2
-0.552734375,0.9453125,-1.630859375,659334117,2
-0.564453125,1.12109375,-1.5625,659334117,2
-0.576171875,1.298828125,-1.47265625,659334117,2
-1.021484375,0.0,-1.705078125,659334117,2
-1.04296875,0.0,-1.685546875,659334117,2
-1.064453125,0.40234375,-1.650390625,659334117,2
-1.150390625,0.365234375,-1.650390625,659334117,2
-1.04296875,0.0,-1.830078125,659334117,2
-1.126953125,0.0,-1.68359375,659334117,2
-1.126953125,0.0,-1.98828125,659334117,2
-1.103515625,0.0,1.900390625,659334117,2
-1.126953125,0.0,-1.81640625,659334117,2
-1.0859375,0.55078125,-1.642578125,659334117,2
-1.04296875,0.0,-1.765625,659334117,2
-1.064453125,0.43359375,-1.642578125,659334117,2
-0.626953125,1.40234375,-1.287109375,659334117,2
-0.18359375,1.791015625,-0.78125,659334117,2
-0.501953125,0.814453125,-1.76171875,659334117,2
-0.638671875,1.685546875,0.966796875,659334117,2
-0.65234375,1.93359375,0.43359375,659334117,2
-0.59765625,2.0234375,0.275390625,659334117,2
-0.1796875,1.91015625,0.130859375,709351057,3
-0.18359375,1.953125,0.1015625,709351057,3
-0.1875,1.9921875,0.1015625,709351057,3
-0.51171875,1.958984375,-0.29296875,709351057,3
-0.65234375,1.970703125,-0.19921875,709351057,3
-0.73046875,1.998046875,0.03125,709351057,3
-0.74609375,2.03125,0.12890625,709351057,3
-0.294921875,1.853515625,0.140625,709351057,3
-0.240234375,1.8984375,0.185546875,709351057,3
-0.24609375,1.9375,0.197265625,709351057,3
-0.1875,1.98828125,0.1640625,709351057,3
-0.255859375,2.029296875,-0.021484375,709351057,3
-0.783203125,1.927734375,0.15234375,709351057,3
-0.796875,1.96484375,0.171875,709351057,3
-0.8125,2.0,0.19140625,709351057,3
-0.166015625,2.654296875,-0.0078125,709351057,3
-0.353515625,1.84375,0.138671875,709351057,3
-0.30078125,1.888671875,0.193359375,709351057,3
-0.306640625,1.921875,0.259765625,709351057,3
-0.3125,1.955078125,0.30859375,709351057,3
-0.3203125,2.01953125,-0.080078125,709351057,3
-0.783203125,1.908203125,0.3125,709351057,3
-0.796875,1.935546875,0.37890625,709351057,3
-0.1640625,2.611328125,0.05859375,709351057,3
-0.25,2.642578125,0.146484375,709351057,3
-0.25390625,2.681640625,0.181640625,709351057,3
-0.412109375,1.826171875,0.18359375,709351057,3
-1.08203125,0.0,-1.771484375,709351057,3
-1.04296875,0.0,-1.873046875,709351057,3
-1.064453125,0.0,-1.857421875,709351057,3
-1.0234375,0.59765625,-1.66796875,709351057,3
-0.783203125,1.900390625,0.357421875,709351057,3
-0.1640625,2.609375,0.13671875,709351057,3
-0.25,2.626953125,0.328125,709351057,3
-0.337890625,2.654296875,0.361328125,709351057,3
-1.08203125,0.0,-1.720703125,709351057,3
-1.04296875,0.0,-1.759765625,709351057,3
-1.064453125,0.0,-1.806640625,709351057,3
-1.0859375,0.0,-1.98046875,709351057,3
-0.716796875,1.873046875,0.57421875,709351057,3
-1.021484375,0.0,-1.775390625,709351057,3
-0.982421875,0.0,-1.806640625,709351057,3
-1.064453125,0.0,-1.818359375,709351057,3
-1.0859375,0.0,-1.83984375,709351057,3
-1.173828125,0.0,-1.833984375,709351057,3
-1.021484375,0.0,-1.716796875,709351057,3
-0.982421875,0.0,-1.75390625,709351057,3
-1.064453125,0.0,-1.763671875,709351057,3
-1.0859375,0.0,-1.7578125,709351057,3
-1.173828125,0.73828125,-1.55859375,709351057,3
-1.021484375,0.095703125,-1.626953125,709351057,3
-1.04296875,0.154296875,-1.65625,709351057,3
-1.064453125,0.2890625,-1.673828125,709351057,3
-1.0859375,0.435546875,-1.677734375,709351057,3
-1.173828125,0.650390625,-1.59765625,709351057,3
-0.78125,1.712890625,0.38671875,709351057,3
-0.796875,1.74609375,0.416015625,709351057,3
-0.751953125,1.806640625,0.43359375,709351057,3
-0.830078125,1.814453125,0.451171875,709351057,3
-0.736328125,1.798828125,0.283203125,709351057,3
-0.814453125,1.80859375,0.28515625,709351057,3
-0.736328125,1.80078125,0.259765625,709351057,3
-0.689453125,1.85546875,0.314453125,709351057,3
-0.767578125,1.85546875,0.38671875,709351057,3
-0.12109375,1.89453125,0.306640625,758980799,4
-0.123046875,1.943359375,0.251953125,758980799,4
-0.125,1.9921875,0.189453125,758980799,4
0.0,2.044921875,0.05859375,758980799,4
0.0,2.080078125,-0.15625,758980799,4
0.0,2.125,-0.107421875,758980799,4
-0.12109375,1.900390625,0.267578125,758980799,4
-0.123046875,1.94140625,0.26953125,758980799,4
-0.125,1.986328125,0.24609375,758980799,4
-0.064453125,2.03125,0.224609375,758980799,4
0.0,2.08203125,0.1328125,758980799,4
-0.06640625,2.125,0.041015625,758980799,4
-0.24609375,2.587890625,0.306640625,758980799,4
-0.33203125,2.630859375,0.185546875,758980799,4
-0.123046875,1.92578125,0.359375,758980799,4
-0.125,1.962890625,0.390625,758980799,4
-0.126953125,2.00390625,0.38671875,758980799,4
0.0,2.07421875,0.232421875,758980799,4
-0.24609375,2.580078125,0.36328125,758980799,4
-0.33203125,2.619140625,0.318359375,758980799,4
-0.337890625,2.669921875,0.2265625,758980799,4
-0.859375,1.76171875,0.10546875,758980799,4
-0.78125,1.734375,0.275390625,758980799,4
-0.796875,1.771484375,0.2890625,758980799,4
-0.876953125,1.77734375,0.302734375,758980799,4
-0.552734375,0.78125,-1.71484375,758980799,4
-0.564453125,0.830078125,-1.736328125,758980799,4
-0.66015625,0.0,-1.869140625,758980799,4
-0.61328125,0.53125,-1.787109375,758980799,4
-0.564453125,0.759765625,-1.767578125,758980799,4
-0.705078125,0.0,-1.75390625,758980799,4
-0.66015625,0.4296875,-1.75390625,758980799,4
-0.61328125,0.69140625,-1.732421875,758980799,4
-0.626953125,0.822265625,-1.716796875,758980799,4
-0.705078125,0.375,-1.703125,758980799,4
-0.66015625,0.455078125,-1.748046875,758980799,4
-0.67578125,0.5703125,-1.75390625,758980799,4
-0.689453125,0.87890625,-1.6640625,758980799,4
-0.66015625,0.419921875,-1.755859375,758980799,4
-0.67578125,0.4296875,-1.79296875,758980799,4
-0.123046875,1.943359375,-0.25390625,758980799,4
0.0,2.001953125,-0.09375,758980799,4
-0.064453125,2.044921875,-0.025390625,758980799,4
-0.716796875,1.9296875,-0.337890625,758980799,4
-0.86328125,1.94140625,-0.095703125,758980799,4
-0.720703125,0.814453125,-1.5859375,758980799,4
-0.716796875,1.873046875,0.576171875,758980799,4
-0.6640625,1.99609375,0.318359375,758980799,4
-0.783203125,1.794921875,0.720703125,758980799,4
-0.84765625,1.791015625,0.654296875,758980799,4
-1.2890625,1.46484375,0.216796875,758980799,4
-1.314453125,1.482421875,0.30078125,758980799,4
-1.3828125,1.3359375,-0.044921875,758980799,4
-1.349609375,1.419921875,0.13671875,758980799,4
-1.37890625,1.435546875,0.24609375,758980799,4
-1.37890625,1.44140625,0.19921875,758980799,4
-0.064453125,2.072265625,0.236328125,758980799,4
0.0,2.12109375,0.1484375,758980799,4
-1.04296875,0.0,-1.89453125,809227739,5
-1.064453125,0.0,-1.91015625,809227739,5
-0.3828125,2.009765625,0.017578125,809227739,5
-0.521484375,2.0078125,-0.228515625,809227739,5
-0.59765625,2.013671875,0.337890625,809227739,5
-1.064453125,0.0,-1.720703125,809227739,5
-1.0234375,1.248046875,-1.255859375,809227739,5
-0.716796875,1.95703125,-0.099609375,809227739,5
-0.73046875,1.998046875,0.00390625,809227739,5
-0.677734375,1.748046875,1.087890625,809227739,5
-1.064453125,0.69921875,-1.546875,809227739,5
-0.958984375,1.634765625,-0.771484375,809227739,5
-0.84765625,1.90625,0.03515625,809227739,5
-0.796875,1.9609375,0.20703125,809227739,5
-0.8125,1.98046875,0.345703125,809227739,5
-1.064453125,0.0,-1.853515625,809227739,5
-0.958984375,1.806640625,-0.029296875,809227739,5
-0.84765625,1.896484375,0.189453125,809227739,5
-0.796875,1.953125,0.265625,809227739,5
-0.8125,1.986328125,0.3125,809227739,5
-0.779296875,2.345703125,0.337890625,809227739,5
-1.064453125,0.0,-1.76171875,809227739,5
-0.783203125,1.888671875,0.4140625,809227739,5
-0.796875,1.951171875,0.2890625,809227739,5
-0.779296875,2.3203125,0.484375,809227739,5
-0.79296875,2.3359375,0.58984375,809227739,5
-1.001953125,0.0,-1.84765625,809227739,5
-0.982421875,0.0,-1.828125,809227739,5
-0.939453125,0.0,-1.841796875,809227739,5
-1.0234375,0.0,-1.826171875,809227739,5
-1.04296875,0.263671875,-1.787109375,809227739,5
-0.736328125,1.80078125,0.265625,809227739,5
-0.689453125,1.861328125,0.28125,809227739,5
-0.767578125,1.869140625,0.322265625,809227739,5
-0.783203125,1.89453125,0.384765625,809227739,5
-0.736328125,1.783203125,0.369140625,809227739,5
-0.751953125,1.818359375,0.38671875,809227739,5
-0.767578125,1.849609375,0.4140625,809227739,5
-0.783203125,1.875,0.4765625,809227739,5
-0.751953125,1.806640625,0.4375,809227739,5
-0.767578125,1.84375,0.443359375,809227739,5
-0.783203125,1.875,0.4765625,809227739,5
-1.166015625,0.0,-1.837890625,809227739,5
-0.4375,1.953125,0.091796875,809227739,5
-0.638671875,1.943359375,0.0390625,809227739,5
-0.716796875,1.953125,0.15625,809227739,5
-0.73046875,1.9921875,0.15234375,809227739,5
-1.103515625,0.0,-1.83984375,809227739,5
-1.126953125,0.0,-1.8046875,809227739,5
-0.447265625,1.98828125,0.162109375,809227739,5
-0.716796875,1.95703125,0.0859375,809227739,5
-1.103515625,0.0,-1.79296875,809227739,5
-1.064453125,0.0,-1.783203125,809227739,5
-1.150390625,0.1875,-1.6796875,809227739,5
-0.130859375,1.87109375,-0.9140625,809227739,5
-0.46484375,1.107421875,1.755859375,809227739,5
-0.54296875,1.66796875,1.2734375,809227739,5
-0.3671875,1.927734375,0.044921875,809227739,5
-0.3125,1.978515625,0.046875,809227739,5
-1.0859375,0.0,-1.767578125,809227739,5
-0.3125,1.970703125,0.19921875,809227739,5
-0.447265625,1.98828125,0.16796875,809227739,5
0.068359375,1.904296875,1.03515625,809227739,5
-0.3125,1.947265625,0.357421875,809227739,5
-0.060546875,1.89453125,-0.32421875,858926545,6
-0.060546875,1.958984375,-0.119140625,858926545,6
-0.0625,1.99609375,0.181640625,858926545,6
-0.064453125,2.037109375,0.1796875,858926545,6
0.0,2.083984375,0.09765625,858926545,6
-0.796875,1.93359375,0.384765625,858926545,6
-0.4375,2.22265625,0.5546875,858926545,6
-0.4453125,2.283203125,0.46484375,858926545,6
-0.12109375,1.8828125,-0.375,858926545,6
-0.123046875,1.953125,-0.162109375,858926545,6
-0.0625,1.9921875,0.203125,858926545,6
-0.064453125,2.029296875,0.25390625,858926545,6
-0.064453125,2.078125,0.162109375,858926545,6
0.06640625,2.123046875,0.12109375,858926545,6
-0.787109375,1.96875,0.8671875,858926545,6
-0.65625,2.109375,0.74609375,858926545,6
-0.12109375,1.91015625,-0.19140625,858926545,6
-0.123046875,1.958984375,-0.064453125,858926545,6
-0.0625,1.994140625,0.185546875,858926545,6
-0.064453125,2.0078125,0.380859375,858926545,6
0.0,2.056640625,0.353515625,858926545,6
-0.919921875,1.6796875,0.43359375,858926545,6
-0.21875,2.3125,-0.205078125,858926545,6
-0.296875,2.353515625,0.005859375,858926545,6
-0.21875,2.3203125,0.044921875,858926545,6
-0.296875,2.353515625,0.06640625,858926545,6
-0.900390625,1.6875,0.197265625,858926545,6
-0.919921875,1.724609375,0.185546875,858926545,6
-0.365234375,2.29296875,0.205078125,858926545,6
-0.296875,2.345703125,0.197265625,858926545,6
-0.73046875,1.998046875,-0.025390625,858926545,6
-0.677734375,2.056640625,0.10546875,858926545,6
-0.759765625,2.0703125,0.142578125,858926545,6
-0.287109375,2.255859375,0.279296875,858926545,6
-0.291015625,2.302734375,0.232421875,858926545,6
-0.37109375,2.3359375,0.17578125,858926545,6
-0.783203125,1.927734375,-0.1484375,858926545,6
-0.73046875,1.99609375,0.09375,858926545,6
-0.677734375,2.0546875,0.134765625,858926545,6
-0.287109375,2.240234375,0.380859375,858926545,6
-0.365234375,2.275390625,0.349609375,858926545,6
-0.37109375,2.32421875,0.30078125,858926545,6
-0.720703125,1.775390625,0.162109375,858926545,6
-0.736328125,1.810546875,0.18359375,858926545,6
0.06640625,2.11328125,0.236328125,858926545,6
-0.78125,1.693359375,0.46484375,858926545,6
-0.736328125,1.69921875,0.650390625,858926545,6
-0.73046875,1.625,1.162109375,858926545,6
-0.841796875,1.65625,0.49609375,858926545,6
-0.736328125,1.67578125,0.708984375,858926545,6
-0.306640625,1.91015625,0.33984375,858926545,6
