-0.58203125,2.974609375,0.693359375,1635113632,275
-0.58984375,2.994140625,0.78125,1635113632,275
-0.59765625,2.982421875,0.9609375,1635113632,275
-0.80859375,3.11328125,0.3203125,1635113632,275
-0.919921875,3.12890625,0.26953125,1635113632,275
-0.208984375,3.1796875,1.048828125,1635113632,275
-0.697265625,3.044921875,0.65234375,1635113632,275
-0.70703125,3.052734375,0.79296875,1635113632,275
-0.716796875,3.0546875,0.931640625,1635113632,275
-0.931640625,3.0625,0.857421875,1635113632,275
-0.697265625,2.966796875,0.94140625,1635113632,275
-0.60546875,2.994140625,1.0546875,1635113632,275
-0.61328125,2.943359375,1.29296875,1635113632,275
-0.62109375,2.94140625,1.39453125,1635113632,275
0.0,3.333984375,0.375,1635113632,275
0.20703125,3.23046875,0.708984375,1635113632,275
0.10546875,3.28125,0.6875,1635113632,275
-0.205078125,3.232421875,0.47265625,1635113632,275
-0.310546875,3.275390625,0.388671875,1635113632,275
-0.58203125,3.041015625,0.2734375,1635113632,275
-0.4921875,3.091796875,0.34375,1635113632,275
-0.498046875,3.119140625,0.455078125,1635113632,275
-0.60546875,3.134765625,0.50390625,1635113632,275
-0.51171875,3.18359375,0.5546875,1635113632,275
-0.58203125,3.017578125,0.46484375,1635113632,275
-0.58984375,3.046875,0.541015625,1635113632,275
-0.59765625,3.060546875,0.671875,1635113632,275
-0.60546875,3.115234375,0.611328125,1635113632,275
-0.716796875,3.109375,0.72265625,1635113632,275
-0.208984375,3.216796875,0.927734375,1635113632,275
-0.267578125,4.287109375,-0.005859375,1635113632,275
-0.271484375,4.326171875,-0.080078125,1635113632,275
-0.689453125,3.05859375,0.29296875,1685338963,276
-0.697265625,3.078125,0.46484375,1685338963,276
-0.70703125,3.12109375,0.453125,1685338963,276
-0.716796875,3.181640625,0.265625,1685338963,276
-0.62109375,3.234375,0.369140625,1685338963,276
-0.314453125,3.3046875,0.482421875,1685338963,276
0.0,4.31640625,0.41796875,1685338963,276
-0.498046875,3.03125,0.865234375,1685338963,276
-0.80859375,3.109375,0.345703125,1685338963,276
-0.818359375,3.140625,0.423828125,1685338963,276
-0.828125,3.162109375,0.5390625,1685338963,276
-0.943359375,3.12890625,0.751953125,1685338963,276
0.0,4.255859375,0.572265625,1685338963,276
0.0,4.2890625,0.640625,1685338963,276
-0.908203125,3.064453125,0.4765625,1685338963,276
-0.818359375,3.111328125,0.603515625,1685338963,276
-0.931640625,3.103515625,0.689453125,1685338963,276
-0.943359375,3.11328125,0.8203125,1685338963,276
-0.908203125,3.033203125,0.646484375,1685338963,276
-0.919921875,3.048828125,0.75390625,1685338963,276
-0.931640625,3.064453125,0.845703125,1685338963,276
-0.943359375,3.068359375,0.97265625,1685338963,276
-1.0234375,3.01171875,0.765625,1685338963,276
-1.03515625,3.05078125,0.77734375,1685338963,276
-0.486328125,3.0703125,0.0859375,1685338963,276
-0.39453125,3.125,0.0703125,1685338963,276
-0.3984375,3.1640625,0.115234375,1685338963,276
-0.505859375,3.18359375,0.240234375,1685338963,276
-0.388671875,3.0625,0.361328125,1685338963,276
-0.39453125,3.107421875,0.333984375,1685338963,276
-0.3984375,3.14453125,0.361328125,1685338963,276
-0.505859375,3.15625,0.48046875,1685338963,276
-0.408203125,3.17578125,0.67578125,1685338963,276
-0.103515625,3.26171875,0.572265625,1685338963,276
0.0,3.306640625,0.56640625,1685338963,276
-0.576171875,2.95703125,0.576171875,1685338963,276
-0.388671875,2.849609375,1.18359375,1685338963,276
-0.39453125,3.072265625,0.57421875,1685338963,276
-0.59765625,3.119140625,0.302734375,1685338963,276
-0.60546875,3.162109375,0.28515625,1685338963,276
-0.306640625,3.1953125,0.6328125,1685338963,276
-0.103515625,3.236328125,0.705078125,1685338963,276
0.10546875,3.2265625,0.912109375,1685338963,276
0.875,1.09765625,1.2265625,1685338963,276
-0.4609375,3.623046875,0.458984375,4290077170,1
-0.46484375,3.681640625,0.296875,4290077170,1
-0.470703125,3.70703125,0.455078125,4290077170,1
-0.712890625,3.65234375,0.7890625,4290077170,1
-0.349609375,3.693359375,0.294921875,4290077170,1
-0.353515625,3.7109375,0.513671875,4290077170,1
-0.59375,3.6796875,0.765625,4290077170,1
-0.349609375,3.669921875,0.515625,4290077170,1
-0.353515625,3.69140625,0.638671875,4290077170,1
-0.357421875,3.720703125,0.705078125,4290077170,1
-0.365234375,3.767578125,0.880859375,4290077170,1
-0.470703125,3.66015625,0.73828125,4290077170,1
-0.474609375,3.7109375,0.685546875,4290077170,1
-0.83203125,3.65234375,0.66796875,4290077170,1
-0.712890625,3.63671875,0.85546875,4290077170,1
-0.720703125,3.76171875,0.33984375,4290077170,1
-0.59375,3.689453125,0.71484375,4290077170,1
-0.6015625,3.71484375,0.7890625,4290077170,1
-0.59375,3.666015625,0.826171875,4290077170,1
-0.697265625,3.640625,0.34375,45327333,2
-0.587890625,3.708984375,0.25390625,45327333,2
0.0,3.771484375,0.501953125,45327333,2
-0.240234375,3.779296875,0.671875,45327333,2
-0.2421875,3.8203125,0.66796875,45327333,2
-0.3671875,3.876953125,0.50390625,45327333,2
-0.4609375,3.59765625,0.62890625,45327333,2
-0.46484375,3.64453125,0.595703125,45327333,2
-0.470703125,3.677734375,0.646484375,45327333,2
-0.357421875,3.705078125,0.787109375,45327333,2
-0.361328125,3.740234375,0.81640625,45327333,2
-0.365234375,3.779296875,0.82421875,45327333,2
-0.3671875,3.82421875,0.810546875,45327333,2
-0.353515625,3.66796875,0.76171875,45327333,2
-0.357421875,3.662109375,0.966796875,45327333,2
-0.361328125,3.685546875,1.0390625,45327333,2
-0.365234375,3.71484375,1.08203125,45327333,2
-0.490234375,3.75390625,1.04296875,45327333,2
-0.46484375,3.69140625,-0.13671875,45327333,2
-0.470703125,3.7265625,-0.248046875,45327333,2
-0.59375,3.7578125,-0.00390625,45327333,2
-0.6015625,3.767578125,0.484375,45327333,2
-0.607421875,3.783203125,0.642578125,45327333,2
-0.576171875,3.6328125,0.146484375,45327333,2
-0.46484375,3.69140625,0.1328125,45327333,2
-0.470703125,3.734375,0.05078125,45327333,2
-0.59375,3.75,0.228515625,45327333,2
-0.6015625,3.732421875,0.69921875,45327333,2
-0.728515625,3.71484375,0.880859375,45327333,2
-0.46484375,3.65234375,0.548828125,95231076,3
-0.82421875,3.669921875,-0.14453125,95231076,3
-1.0703125,3.59375,-0.640625,95231076,3
0.0,3.43359375,1.732421875,95231076,3
-0.2421875,3.68359375,1.21484375,95231076,3
-0.587890625,3.6171875,0.853515625,95231076,3
-0.59375,3.662109375,0.841796875,95231076,3
-0.720703125,3.677734375,0.859375,95231076,3
-0.849609375,3.6640625,0.98046875,95231076,3
-0.720703125,3.380859375,1.68359375,95231076,3
-0.705078125,3.556640625,1.009765625,95231076,3
-0.712890625,3.609375,0.966796875,95231076,3
-0.720703125,3.658203125,0.94140625,95231076,3
-0.353515625,3.681640625,0.693359375,95231076,3
-0.357421875,3.75,0.52734375,95231076,3
-0.361328125,3.796875,0.494140625,95231076,3
-0.365234375,3.837890625,0.48828125,95231076,3
-0.4609375,3.6015625,0.61328125,95231076,3
-0.349609375,3.697265625,0.259765625,95231076,3
-0.353515625,3.58984375,1.07421875,95231076,3
-0.357421875,3.708984375,0.76953125,95231076,3
-0.361328125,3.7578125,0.73046875,95231076,3
-0.365234375,3.796875,0.740234375,95231076,3
-0.490234375,3.845703125,0.630859375,95231076,3
0.23828125,3.15625,2.111328125,95231076,3
-1.201171875,3.55078125,-0.857421875,95231076,3
-0.46484375,3.623046875,0.712890625,145307863,4
-0.353515625,3.70703125,0.5390625,145307863,4
-0.474609375,3.736328125,0.5390625,145307863,4
-0.6015625,3.740234375,0.66015625,145307863,4
-0.486328125,3.763671875,0.83984375,145307863,4
-0.490234375,3.794921875,0.8828125,145307863,4
-0.587890625,3.634765625,0.78125,145307863,4
-0.59375,3.69140625,0.69921875,145307863,4
-0.720703125,3.71484375,0.6875,145307863,4
-0.607421875,3.75,0.81640625,145307863,4
-0.587890625,3.580078125,1.00390625,145307863,4
-0.59375,3.646484375,0.91015625,145307863,4
-0.720703125,3.669921875,0.89453125,145307863,4
-0.728515625,3.69140625,0.974609375,145307863,4
-0.712890625,3.564453125,1.123046875,145307863,4
-0.720703125,3.59765625,1.1484375,145307863,4
-0.349609375,3.703125,0.142578125,145307863,4
-0.353515625,3.744140625,0.142578125,145307863,4
-0.357421875,3.77734375,0.265625,145307863,4
-0.361328125,3.80078125,0.4609375,145307863,4
-0.2421875,3.83984375,0.541015625,145307863,4
-0.490234375,3.869140625,0.453125,145307863,4
-0.349609375,3.689453125,0.34765625,145307863,4
-0.353515625,3.73828125,0.265625,145307863,4
-0.357421875,3.767578125,0.388671875,145307863,4
-0.361328125,3.771484375,0.662109375,145307863,4
-0.486328125,3.7890625,0.716796875,145307863,4
-0.490234375,3.853515625,0.576171875,145307863,4
-0.697265625,3.630859375,0.431640625,195136095,5
-0.587890625,3.693359375,0.412109375,195136095,5
-0.59375,3.71875,0.533203125,195136095,5
-0.361328125,3.6875,1.029296875,195136095,5
-0.712890625,3.638671875,0.849609375,195136095,5
-0.6015625,3.72265625,0.751953125,195136095,5
-0.728515625,3.75,0.716796875,195136095,5
-0.712890625,3.630859375,0.88671875,195136095,5
-0.720703125,3.666015625,0.91015625,195136095,5
-0.849609375,3.689453125,0.876953125,195136095,5
-0.4609375,3.609375,0.56640625,195136095,5
-0.4609375,3.59765625,0.63671875,195136095,5
-0.58203125,3.59765625,0.759765625,195136095,5
-0.58203125,3.642578125,0.501953125,195136095,5
-0.470703125,3.732421875,0.095703125,195136095,5
-0.349609375,3.705078125,0.10546875,195136095,5
-0.470703125,3.732421875,0.10546875,195136095,5
-0.357421875,3.755859375,0.494140625,195136095,5
-0.240234375,3.7421875,0.8515625,195136095,5
-0.365234375,3.796875,0.740234375,195136095,5
-0.576171875,3.59765625,0.52734375,245052659,6
-0.58203125,3.642578125,0.50390625,245052659,6
-0.587890625,3.689453125,0.447265625,245052659,6
-0.568359375,3.5078125,0.791015625,245052659,6
-0.6015625,3.76171875,0.529296875,245052659,6
-0.46484375,3.69140625,0.1328125,245052659,6
-0.357421875,3.65234375,1.0,245052659,6
-0.48046875,3.720703125,0.84375,245052659,6
-0.486328125,3.7890625,0.7109375,245052659,6
-0.4609375,3.640625,0.29296875,245052659,6
-0.46484375,3.681640625,0.298828125,245052659,6
-0.587890625,3.71484375,0.1015625,245052659,6
-0.357421875,3.5859375,1.220703125,245052659,6
-0.48046875,3.701171875,0.92578125,245052659,6
-0.486328125,3.814453125,0.55859375,245052659,6
