0.044921875,0.876953125,-1.130859375,593764155,430
0.091796875,0.9296875,-1.138671875,593764155,430
0.09375,0.9453125,-1.177734375,593764155,430
0.0,0.552734375,-1.453125,593764155,430
0.0,0.6015625,-1.478515625,593764155,430
0.05078125,0.58203125,-1.52734375,593764155,430
0.0,0.611328125,-1.5625,593764155,430
0.0,1.228515625,-1.201171875,593764155,430
0.0,1.341796875,-1.13671875,593764155,430
-0.13671875,4.23828125,1.08203125,593764155,430
0.0,0.66796875,-1.359375,593764155,430
0.0,0.1484375,1.546875,593764155,430
0.0,0.6015625,1.4765625,593764155,430
0.0,0.564453125,1.53515625,593764155,430
0.0,0.169921875,-1.66796875,593764155,430
0.0,0.21484375,1.5390625,593764155,430
-0.05078125,1.0078125,1.234375,593764155,430
-0.1015625,0.779296875,1.435546875,593764155,430
-0.158203125,1.181640625,-1.1796875,593764155,430
0.0,1.50390625,1.26171875,593764155,430
0.048828125,1.23828125,-0.9375,593764155,430
0.05078125,1.30078125,-0.921875,593764155,430
1.05078125,2.001953125,3.005859375,593764155,430
32.001953125,0.0,33.5,593764155,430
33.5,35.837890625,0.359375,593764155,430
6.0,0.0,16.0,593764155,430
3.5,0.0,24.0,593764155,430
31.5,6.001953125,1.0625,593764155,430
2.513671875,1.0,32.001953125,593764155,430
1.0,0.0,27.5,593764155,430
0.0,0.0,6.0,593764155,430
57.158203125,0.0,3.5,593764155,430
43.0,0.693359375,31.5,593764155,430
3.005859375,4.009765625,2.513671875,593764155,430
33.5,5.0390625,1.5,593764155,430
0.37109375,0.0,0.0,593764155,430
40.0,1.669921875,57.158203125,593764155,430
24.0,0.0,43.0,593764155,430
1.0625,2.001953125,3.005859375,593764155,430
32.001953125,0.0,33.5,593764155,430
12.5,28.24609375,0.376953125,593764155,430
6.0,0.0,16.0,593764155,430
3.5,0.0,24.0,593764155,430
31.5,6.001953125,1.0625,593764155,430
2.513671875,1.0,32.001953125,593764155,430
2.5,0.0,-24.0,593764155,430
0.0,0.0,6.0,593764155,430
54.658203125,0.0,3.5,593764155,430
43.0,0.693359375,31.5,593764155,430
3.005859375,4.009765625,2.513671875,593764155,430
33.5,5.0390625,3.0,593764155,430
0.388671875,0.0,0.0,593764155,430
16.0,1.669921875,57.158203125,593764155,430
24.0,0.0,43.0,593764155,430
161.0625,2.001953125,3.005859375,593764155,430
32.001953125,0.0,33.5,593764155,430
-50.0,20.654296875,0.39453125,593764155,430
6.0,0.0,40.0,593764155,430
3.5,0.0,24.0,593764155,430
31.5,6.001953125,161.0625,593764155,430
2.513671875,1.0,32.001953125,593764155,430
4.0,0.0,-29.5,593764155,430
0.0,0.0,6.0,593764155,430
57.158203125,0.0,3.5,593764155,430
