-0.482421875,2.10546875,0.458984375,1628552646,273
-0.40234375,2.53515625,0.234375,1628552646,273
-0.408203125,2.5703125,0.28515625,1628552646,273
-0.33203125,2.625,0.263671875,1628552646,273
-0.421875,2.638671875,0.392578125,1628552646,273
-0.482421875,2.119140625,0.39453125,1628552646,273
-0.421875,2.177734375,0.37109375,1628552646,273
-0.357421875,2.240234375,0.3203125,1628552646,273
-0.396484375,2.44921875,0.5234375,1628552646,273
-0.24609375,2.5,0.740234375,1628552646,273
-0.33203125,2.5546875,0.662109375,1628552646,273
-0.421875,2.56640625,0.724609375,1628552646,273
-0.357421875,2.220703125,0.4296875,1628552646,273
-0.16015625,2.455078125,0.765625,1628552646,273
-0.24609375,2.44921875,0.892578125,1628552646,273
-0.4140625,2.1484375,0.310546875,1628552646,273
-0.498046875,2.5625,0.501953125,1628552646,273
-0.421875,2.6015625,0.58984375,1628552646,273
-0.498046875,2.521484375,0.677734375,1628552646,273
-0.505859375,2.533203125,0.783203125,1628552646,273
-0.4140625,2.13671875,0.375,1628552646,273
-0.4140625,2.12109375,0.4609375,1628552646,273
-0.416015625,2.55859375,0.591796875,1628552646,273
-0.328125,2.537109375,0.55859375,1628552646,273
-0.33203125,2.587890625,0.509765625,1628552646,273
0.0,1.6484375,-2.033203125,1628552646,273
0.0,1.666015625,-2.072265625,1628552646,273
0.0,1.73046875,-2.072265625,1628552646,273
0.0,1.7109375,-1.982421875,1628552646,273
0.0,1.78515625,-1.970703125,1628552646,273
-0.408203125,2.43359375,0.875,1628552646,273
-0.416015625,2.423828125,1.009765625,1628552646,273
-0.28125,2.224609375,0.173828125,1628552646,273
-0.287109375,2.251953125,0.3125,1628552646,273
-0.291015625,2.29296875,0.3125,1628552646,273
-0.408203125,2.447265625,0.83203125,1628552646,273
-0.416015625,2.46875,0.89453125,1628552646,273
-0.28125,2.19140625,0.421875,1628552646,273
-0.287109375,2.236328125,0.408203125,1628552646,273
-0.291015625,2.279296875,0.396484375,1628552646,273
-0.408203125,2.259765625,1.2578125,1628552646,273
-0.416015625,2.443359375,0.96484375,1628552646,273
-0.357421875,2.212890625,0.47265625,1628552646,273
-0.365234375,2.255859375,0.466796875,1628552646,273
-0.3125,2.453125,0.337890625,1628552646,273
-0.31640625,2.513671875,0.09765625,1628552646,273
-0.482421875,2.53125,-0.068359375,1628552646,273
-0.490234375,2.564453125,-0.185546875,1628552646,273
-0.982421875,2.3515625,0.6015625,1628552646,273
-0.998046875,2.3828125,0.634765625,1628552646,273
-1.181640625,2.349609375,0.61328125,1628552646,273
-0.982421875,2.333984375,0.662109375,1628552646,273
-0.998046875,2.357421875,0.720703125,1628552646,273
-0.453125,2.26953125,0.685546875,1678876624,274
-0.4609375,2.310546875,0.689453125,1678876624,274
-0.46875,2.3984375,0.50390625,1678876624,274
-0.634765625,2.421875,0.404296875,1678876624,274
-0.64453125,2.455078125,0.44140625,1678876624,274
-0.572265625,2.53515625,0.30859375,1678876624,274
-0.25,2.58984375,-0.548828125,1678876624,274
-0.337890625,2.56640625,-0.76953125,1678876624,274
0.564453125,1.896484375,-1.65234375,1678876624,274
-0.408203125,2.4453125,0.841796875,1678876624,274
-0.498046875,2.400390625,1.03125,1678876624,274
-0.505859375,2.443359375,1.029296875,1678876624,274
-0.40234375,4.25,0.47265625,1678876624,274
-0.40625,4.2890625,0.490234375,1678876624,274
-0.328125,2.298828125,1.208984375,1678876624,274
-0.416015625,2.341796875,1.189453125,1678876624,274
-0.421875,2.5,0.9296875,1678876624,274
-0.599609375,2.5703125,0.7421875,1678876624,274
-0.328125,2.533203125,0.576171875,1678876624,274
-0.33203125,2.49609375,0.85546875,1678876624,274
-0.421875,2.515625,0.8828125,1678876624,274
-0.2421875,2.521484375,0.478515625,1678876624,274
1.25390625,2.001953125,3.005859375,1678876624,274
-31.998046875,0.001953125,33.5,1678876624,274
58.0,-16.076171875,15.59375,1678876624,274
0.5,0.0,60.0,1678876624,274
38.5,0.0,31.0,1678876624,274
39.001953125,0.0,-49.0,1678876624,274
39.501953125,0.0,-24.0,1678876624,274
40.001953125,0.0,-52.5,1678876624,274
40.501953125,0.0,31.5,1678876624,274
37.501953125,0.5,20.0,1678876624,274
38.0,0.5,16.0,1678876624,274
38.5,0.5,13.5,1678876624,274
39.00390625,0.5,39.0,1678876624,274
39.501953125,0.5,35.0,1678876624,274
37.001953125,2.5,15.0,1678876624,274
38.98828125,-2.0,19.998046875,1678876624,274
39.001953125,-2.0,24.998046875,1678876624,274
38.501953125,-1.5,41.998046875,1678876624,274
39.001953125,-1.5,-62.001953125,1678876624,274
39.501953125,-1.5,50.498046875,1678876624,274
40.001953125,-1.5,26.998046875,1678876624,274
38.001953125,-1.0,21.998046875,1678876624,274
38.5,-1.0,57.498046875,1678876624,274
39.001953125,-1.0,-5.501953125,1678876624,274
39.501953125,-1.0,19.998046875,1678876624,274
40.001953125,-1.0,-26.001953125,1678876624,274
40.501953125,-1.0,39.498046875,1678876624,274
37.501953125,-0.5,16.498046875,1678876624,274
38.0,-0.5,25.498046875,1678876624,274
38.5,-0.5,52.998046875,1678876624,274
39.001953125,-0.5,0.998046875,1678876624,274
39.501953125,-0.5,59.498046875,1678876624,274
40.001953125,-0.5,18.998046875,1678876624,274
40.501953125,-0.5,59.998046875,1678876624,274
37.001953125,2.5,10.5,1678876624,274
6.0,0.0,40.0,1678876624,274
3.5,0.0,24.0,1678876624,274
31.5,6.001953125,1.0625,1678876624,274
2.513671875,1.0,-63.998046875,1678876624,274
1.0,0.0,-54.5,1678876624,274
0.5,0.0,0.5,1678876624,274
14.0,4.5,37.5,1678876624,274
-0.37890625,2.9765625,0.40234375,920375822,3
-0.3828125,3.017578125,0.39453125,920375822,3
-0.486328125,3.056640625,0.296875,920375822,3
-0.689453125,3.0703125,-0.142578125,920375822,3
-0.697265625,2.611328125,1.6953125,920375822,3
-0.404296875,3.103515625,0.80859375,920375822,3
-0.3828125,2.9921875,0.564453125,920375822,3
-0.58203125,3.0,0.57421875,920375822,3
0.0,3.150390625,0.025390625,920375822,3
-0.099609375,3.181640625,0.205078125,920375822,3
-0.70703125,3.064453125,0.744140625,920375822,3
-0.61328125,3.169921875,0.537109375,920375822,3
-0.09765625,3.1015625,0.537109375,920375822,3
0.0,3.173828125,0.3203125,920375822,3
-0.80859375,3.060546875,0.654296875,920375822,3
-0.716796875,3.115234375,0.701171875,920375822,3
-0.298828125,3.158203125,0.34375,920375822,3
-0.505859375,3.162109375,0.44140625,920375822,3
-0.197265625,3.10546875,0.490234375,920375822,3
-0.298828125,3.14453125,0.44921875,920375822,3
-0.302734375,3.19140625,0.408203125,920375822,3
-0.51171875,3.22265625,0.244140625,920375822,3
-0.39453125,3.0703125,0.580078125,920375822,3
-0.3984375,3.12109375,0.533203125,920375822,3
-0.505859375,3.154296875,0.494140625,920375822,3
-0.61328125,3.1796875,0.470703125,920375822,3
-0.724609375,3.19140625,0.51953125,920375822,3
-0.498046875,3.115234375,0.478515625,920375822,3
-0.60546875,3.12890625,0.53515625,920375822,3
-0.716796875,3.14453125,0.55078125,920375822,3
-0.724609375,3.177734375,0.59375,920375822,3
-0.294921875,3.134765625,0.044921875,920375822,3
-0.498046875,3.140625,0.259765625,920375822,3
-0.60546875,3.142578125,0.443359375,920375822,3
-0.61328125,3.17578125,0.494140625,920375822,3
-0.19921875,1.57421875,-2.767578125,920375822,3
-0.404296875,1.8671875,-2.60546875,920375822,3
-0.19921875,1.29296875,-2.91015625,920375822,3
-0.302734375,1.474609375,-2.859375,920375822,3
-0.19921875,1.396484375,-2.861328125,920375822,3
-0.37890625,3.00390625,0.00390625,920375822,3
-0.3828125,3.04296875,-0.02734375,920375822,3
-0.388671875,3.083984375,-0.056640625,920375822,3
-0.4921875,3.111328125,0.021484375,920375822,3
-0.3984375,3.142578125,0.388671875,920375822,3
-0.37890625,2.998046875,0.193359375,920375822,3
-0.3828125,3.0390625,0.1796875,920375822,3
-0.486328125,3.068359375,0.13671875,920375822,3
-0.58984375,3.080078125,0.29296875,920375822,3
-0.3984375,3.11328125,0.578125,920375822,3
0.3984375,3.072265625,-0.759765625,920375822,3
0.302734375,2.5546875,-1.955078125,920375822,3
-0.302734375,3.16015625,0.60546875,920375822,3
-1.396484375,2.865234375,0.166015625,920375822,3
-1.515625,2.8359375,0.326171875,920375822,3
-0.478515625,3.02734375,0.1328125,970434195,4
-0.486328125,3.06640625,0.16796875,970434195,4
-0.39453125,3.091796875,0.451171875,970434195,4
-0.498046875,3.0859375,0.638671875,970434195,4
-0.60546875,3.076171875,0.78125,970434195,4
-0.61328125,3.087890625,0.890625,970434195,4
-0.724609375,3.076171875,0.99609375,970434195,4
-0.37890625,2.98046875,0.365234375,970434195,4
-0.3828125,3.021484375,0.3671875,970434195,4
-0.388671875,3.0546875,0.423828125,970434195,4
-0.39453125,3.064453125,0.615234375,970434195,4
-0.3984375,3.06640625,0.78515625,970434195,4
-0.404296875,3.0859375,0.873046875,970434195,4
-0.478515625,2.98046875,0.546875,970434195,4
-0.486328125,3.001953125,0.6484375,970434195,4
-0.39453125,2.98828125,0.91796875,970434195,4
-0.498046875,2.9765625,1.03515625,970434195,4
-0.404296875,3.0078125,1.107421875,970434195,4
-0.294921875,3.13671875,0.00390625,970434195,4
-0.3984375,3.162109375,0.130859375,970434195,4
-0.60546875,3.162109375,0.279296875,970434195,4
-0.291015625,3.08984375,0.18359375,970434195,4
-0.294921875,3.12890625,0.208984375,970434195,4
-0.298828125,3.166015625,0.255859375,970434195,4
-0.404296875,3.19140625,0.314453125,970434195,4
-0.61328125,3.201171875,0.294921875,970434195,4
-0.294921875,3.107421875,0.421875,970434195,4
-0.298828125,3.140625,0.470703125,970434195,4
-0.505859375,3.162109375,0.44140625,970434195,4
-0.716796875,3.1640625,0.431640625,970434195,4
-0.298828125,3.173828125,0.119140625,970434195,4
-0.302734375,3.21484375,0.107421875,970434195,4
-0.51171875,3.21875,0.29296875,970434195,4
-0.294921875,3.1171875,0.341796875,970434195,4
-0.298828125,3.154296875,0.3828125,970434195,4
-0.404296875,3.1796875,0.412109375,970434195,4
-0.51171875,3.197265625,0.478515625,970434195,4
-0.62109375,3.19921875,0.599609375,970434195,4
-0.197265625,3.08984375,0.578125,970434195,4
-0.298828125,3.12890625,0.55078125,970434195,4
-0.404296875,3.15234375,0.583984375,970434195,4
-0.51171875,3.166015625,0.6484375,970434195,4
-0.62109375,3.1640625,0.765625,970434195,4
-0.294921875,3.12890625,0.21875,970434195,4
-0.19921875,3.158203125,0.41015625,970434195,4
-0.818359375,3.15234375,0.3125,970434195,4
-0.287109375,3.0546875,0.021484375,970434195,4
-0.388671875,3.083984375,0.0703125,970434195,4
-0.294921875,3.12890625,0.22265625,970434195,4
-0.19921875,3.169921875,0.3125,970434195,4
-0.908203125,2.951171875,0.953125,970434195,4
-0.818359375,3.08203125,0.734375,970434195,4
-0.828125,3.12890625,0.712890625,970434195,4
-0.51171875,3.203125,0.4375,970434195,4
0.201171875,3.060546875,-1.015625,970434195,4
-0.37890625,2.99609375,0.2109375,1020088433,5
-0.287109375,3.05078125,0.138671875,1020088433,5
-0.388671875,3.083984375,-0.029296875,1020088433,5
-0.294921875,3.052734375,0.71875,1020088433,5
-0.298828125,3.134765625,0.515625,1020088433,5
-0.505859375,3.1171875,0.68359375,1020088433,5
-0.61328125,3.107421875,0.822265625,1020088433,5
-0.724609375,3.111328125,0.876953125,1020088433,5
-0.37890625,2.98046875,0.36328125,1020088433,5
-0.3828125,3.021484375,0.36328125,1020088433,5
-0.388671875,3.080078125,0.1640625,1020088433,5
-0.294921875,2.9453125,1.076171875,1020088433,5
-0.298828125,3.052734375,0.880859375,1020088433,5
-0.302734375,3.08203125,0.919921875,1020088433,5
-0.306640625,3.080078125,1.0625,1020088433,5
-0.3828125,2.99609375,0.5390625,1020088433,5
-0.486328125,3.048828125,0.3671875,1020088433,5
-0.294921875,2.880859375,1.23828125,1020088433,5
-0.298828125,2.990234375,1.072265625,1020088433,5
-0.302734375,3.029296875,1.0859375,1020088433,5
-0.408203125,3.05078125,1.111328125,1020088433,5
-0.287109375,3.046875,0.21875,1020088433,5
-0.19140625,3.048828125,0.279296875,1020088433,5
-0.193359375,3.08984375,0.279296875,1020088433,5
-0.294921875,3.0859375,0.556640625,1020088433,5
-0.3984375,3.13671875,0.431640625,1020088433,5
-0.505859375,3.16796875,0.392578125,1020088433,5
-0.51171875,3.20703125,0.41015625,1020088433,5
-0.62109375,3.228515625,0.408203125,1020088433,5
-0.3828125,3.04296875,0.0234375,1020088433,5
-0.388671875,3.08203125,-0.140625,1020088433,5
-0.197265625,3.033203125,0.826171875,1020088433,5
-0.3984375,3.1015625,0.6328125,1020088433,5
-0.404296875,3.146484375,0.619140625,1020088433,5
-0.51171875,3.173828125,0.609375,1020088433,5
-0.62109375,3.1953125,0.6171875,1020088433,5
-0.3828125,3.025390625,0.337890625,1070625540,6
-0.388671875,3.03515625,0.552734375,1070625540,6
-0.294921875,3.01953125,0.84375,1070625540,6
-0.19921875,3.087890625,0.775390625,1070625540,6
-0.51171875,2.162109375,-2.40234375,1070625540,6
-0.4140625,2.48046875,-2.15625,1070625540,6
0.0,4.408203125,0.302734375,1070625540,6
0.0,4.4296875,0.515625,1070625540,6
-0.3828125,3.005859375,0.482421875,1070625540,6
-0.388671875,2.998046875,0.72265625,1070625540,6
-0.294921875,2.953125,1.052734375,1070625540,6
-0.19921875,3.03125,0.974609375,1070625540,6
-0.302734375,3.11328125,0.810546875,1070625540,6
-0.408203125,3.21484375,0.4609375,1070625540,6
-0.2734375,4.29296875,0.8046875,1070625540,6
-0.138671875,4.373046875,0.619140625,1070625540,6
-0.279296875,4.396484375,0.6875,1070625540,6
-0.197265625,2.93359375,1.130859375,1070625540,6
-0.298828125,3.001953125,1.041015625,1070625540,6
-0.302734375,3.083984375,0.919921875,1070625540,6
-0.51171875,3.224609375,0.224609375,1070625540,6
-0.1328125,4.251953125,0.03515625,1070625540,6
-0.134765625,4.29296875,-0.037109375,1070625540,6
0.0,4.333984375,-0.158203125,1070625540,6
-0.2734375,4.35546875,0.34375,1070625540,6
-0.4140625,4.330078125,0.7734375,1070625540,6
-0.60546875,3.1328125,0.509765625,1070625540,6
-0.61328125,3.189453125,0.400390625,1070625540,6
-0.724609375,3.193359375,0.501953125,1070625540,6
0.0,4.24609375,0.25,1070625540,6
-0.134765625,4.283203125,0.283203125,1070625540,6
-0.134765625,4.326171875,0.26171875,1070625540,6
-0.2734375,4.349609375,0.4140625,1070625540,6
-0.796875,2.912109375,1.029296875,1070625540,6
-0.70703125,3.07421875,0.701171875,1070625540,6
-0.716796875,3.13671875,0.603515625,1070625540,6
-0.724609375,3.181640625,0.5703125,1070625540,6
0.0,4.291015625,0.626953125,1070625540,6
-0.13671875,4.3359375,0.578125,1070625540,6
-0.70703125,3.080078125,0.67578125,1070625540,6
-0.716796875,3.115234375,0.703125,1070625540,6
-0.828125,3.125,0.7265625,1070625540,6
0.0,4.3125,0.455078125,1070625540,6
-0.80859375,3.103515625,0.392578125,1070625540,6
-0.716796875,3.1484375,0.53515625,1070625540,6
-0.724609375,3.173828125,0.61328125,1070625540,6
-0.505859375,3.189453125,0.119140625,1070625540,6
-0.51171875,3.208984375,0.390625,1070625540,6
-0.205078125,1.720703125,-2.775390625,1070625540,6
-0.205078125,1.724609375,-2.7734375,1070625540,6
-0.20703125,1.751953125,-2.8046875,1070625540,6
-0.314453125,1.69921875,-2.875,1070625540,6
0.0,1.939453125,-2.63671875,1070625540,6
-0.20703125,1.876953125,-2.72265625,1070625540,6
-0.314453125,1.548828125,-2.958984375,1070625540,6
-0.201171875,1.74609375,-2.712890625,1070625540,6
0.0,2.05859375,-2.544921875,1070625540,6
-0.298828125,2.193359375,-2.298828125,1070625540,6
-0.404296875,1.85546875,-2.615234375,1070625540,6
-0.408203125,1.837890625,-2.67578125,1070625540,6
-0.517578125,2.048828125,-2.55078125,1070625540,6
-0.298828125,2.24609375,-2.24609375,1070625540,6
-0.302734375,1.974609375,-2.541015625,1070625540,6
-0.408203125,1.861328125,-2.66015625,1070625540,6
