-0.287109375,1.103515625,-0.115234375,804201471,1
-0.296875,1.1484375,0.046875,804201471,1
-0.267578125,1.193359375,0.091796875,804201471,1
-0.31640625,1.22265625,0.1015625,804201471,1
-0.328125,1.259765625,0.13671875,804201471,1
-0.58984375,1.208984375,-0.1171875,804201471,1
-0.26171875,1.255859375,0.53515625,804201471,1
-0.224609375,1.24609375,0.66796875,804201471,1
-0.138671875,0.96875,1.1015625,804201471,1
-0.287109375,1.10546875,0.076171875,804201471,1
-0.296875,1.134765625,0.177734375,804201471,1
-0.306640625,1.173828125,0.181640625,804201471,1
-0.31640625,1.212890625,0.193359375,804201471,1
-0.328125,1.244140625,0.24609375,804201471,1
-0.58984375,1.212890625,0.029296875,804201471,1
-0.26171875,1.298828125,0.423828125,804201471,1
-0.267578125,1.33984375,0.42578125,804201471,1
-0.25,1.11328125,0.099609375,804201471,1
-0.259765625,1.12890625,0.25390625,804201471,1
-0.267578125,1.119140625,0.427734375,804201471,1
-0.27734375,1.177734375,0.37890625,804201471,1
-0.3671875,1.216796875,0.310546875,804201471,1
-0.2109375,1.3046875,-0.27734375,804201471,1
-0.26171875,1.318359375,0.35546875,804201471,1
-0.224609375,1.341796875,0.447265625,804201471,1
-0.23046875,1.404296875,0.380859375,804201471,1
-0.25,1.115234375,0.05859375,804201471,1
-0.259765625,1.140625,0.19140625,804201471,1
-0.306640625,1.166015625,0.228515625,804201471,1
-0.31640625,1.203125,0.244140625,804201471,1
-0.3671875,1.228515625,0.259765625,804201471,1
-0.37890625,1.244140625,0.36328125,804201471,1
-0.26171875,1.2578125,0.53515625,804201471,1
-0.224609375,1.2890625,0.580078125,804201471,1
-0.23046875,1.31640625,0.619140625,804201471,1
-0.388671875,1.33984375,0.6875,804201471,1
-0.3984375,1.330078125,0.787109375,804201471,1
-0.25,1.103515625,0.181640625,804201471,1
-0.259765625,1.13671875,0.21484375,804201471,1
-0.306640625,1.166015625,0.23046875,804201471,1
-0.396484375,1.16796875,0.291015625,804201471,1
-0.408203125,1.20703125,0.30078125,804201471,1
-0.287109375,1.087890625,0.212890625,804201471,1
-0.259765625,1.12890625,0.259765625,804201471,1
-0.306640625,1.15625,0.275390625,804201471,1
-0.31640625,1.201171875,0.2578125,804201471,1
-0.328125,1.232421875,0.298828125,804201471,1
-0.37109375,1.126953125,-0.0234375,804201471,1
-0.345703125,1.169921875,0.1328125,804201471,1
-0.31640625,1.208984375,0.21875,804201471,1
-0.328125,1.228515625,0.30859375,804201471,1
-0.322265625,1.087890625,0.150390625,804201471,1
-0.333984375,1.115234375,0.224609375,804201471,1
-0.3828125,1.06640625,0.47265625,804201471,1
-0.634765625,0.0,1.169921875,804201471,1
-0.6953125,0.0,1.296875,804201471,1
-0.171875,0.50390625,-0.966796875,804201471,1
-0.1796875,0.578125,-0.97265625,804201471,1
-0.185546875,0.609375,-1.001953125,804201471,1
-0.23046875,0.595703125,-1.048828125,804201471,1
-0.31640625,1.03125,-0.666015625,804201471,1
-0.53125,1.1953125,0.0,804201471,1
-0.171875,0.5859375,-0.919921875,804201471,1
-0.1796875,0.650390625,-0.92578125,804201471,1
-0.259765625,1.142578125,0.181640625,854199252,2
-0.306640625,1.1875,0.04296875,854199252,2
-0.31640625,1.228515625,0.00390625,854199252,2
-0.3671875,1.255859375,0.005859375,854199252,2
-0.421875,1.28125,0.05859375,854199252,2
-0.390625,1.33203125,0.095703125,854199252,2
-0.1796875,1.41796875,-0.080078125,854199252,2
-0.59765625,1.28515625,0.3984375,854199252,2
-0.384765625,0.6953125,-1.5703125,854199252,2
-0.44921875,0.38671875,1.69921875,854199252,2
-0.296875,1.125,0.23046875,854199252,2
-0.306640625,1.181640625,0.1328125,854199252,2
-0.31640625,1.224609375,0.09375,854199252,2
-0.3671875,1.251953125,0.103515625,854199252,2
-0.421875,1.2734375,0.158203125,854199252,2
-0.390625,1.3203125,0.201171875,854199252,2
-0.224609375,1.404296875,-0.158203125,854199252,2
-0.59765625,1.265625,0.455078125,854199252,2
-0.615234375,1.296875,0.478515625,854199252,2
-0.58203125,1.345703125,0.513671875,854199252,2
-0.37109375,1.109375,0.197265625,854199252,2
-0.345703125,1.1640625,0.18359375,854199252,2
-0.27734375,1.21484375,0.232421875,854199252,2
-0.328125,1.2421875,0.25,854199252,2
-0.37890625,1.25390625,0.328125,854199252,2
-0.390625,1.283203125,0.365234375,854199252,2
-0.224609375,1.328125,0.486328125,854199252,2
-0.59765625,1.287109375,0.392578125,854199252,2
-0.615234375,1.3046875,0.458984375,854199252,2
-0.37109375,1.103515625,0.228515625,854199252,2
-0.3828125,1.14453125,0.220703125,854199252,2
-0.515625,1.158203125,0.0234375,854199252,2
-0.205078125,1.15234375,0.587890625,854199252,2
-0.2109375,0.939453125,0.9453125,854199252,2
-0.087890625,1.19140625,0.712890625,854199252,2
-0.224609375,1.271484375,0.6171875,854199252,2
-0.23046875,1.296875,0.658203125,854199252,2
-0.236328125,1.345703125,0.6484375,854199252,2
-0.474609375,1.16796875,0.130859375,854199252,2
-0.53125,1.189453125,0.1328125,854199252,2
-0.548828125,1.224609375,0.142578125,854199252,2
-0.609375,1.244140625,0.125,854199252,2
-0.267578125,1.171875,0.77734375,854199252,2
-0.23046875,1.291015625,0.669921875,854199252,2
-0.236328125,1.3515625,0.638671875,854199252,2
-0.515625,1.154296875,0.091796875,854199252,2
-0.53125,1.185546875,0.15234375,854199252,2
-0.58984375,1.197265625,0.197265625,854199252,2
-0.609375,1.220703125,0.275390625,854199252,2
-0.498046875,1.11328125,0.138671875,854199252,2
-0.515625,1.1484375,0.15234375,854199252,2
-0.572265625,1.158203125,0.20703125,854199252,2
-0.58984375,1.181640625,0.27734375,854199252,2
-0.65234375,1.19921875,0.265625,854199252,2
-0.537109375,1.08984375,0.17578125,854199252,2
-0.5546875,1.126953125,0.173828125,854199252,2
-0.572265625,1.166015625,0.1640625,854199252,2
-0.435546875,0.712890625,-0.953125,854199252,2
-0.408203125,0.619140625,-1.078125,854199252,2
-0.505859375,1.2421875,0.150390625,854199252,2
-0.478515625,1.291015625,0.19921875,854199252,2
-0.267578125,1.1953125,-0.078125,854199252,2
-0.27734375,1.234375,-0.087890625,854199252,2
-0.24609375,1.2734375,-0.18359375,854199252,2
-0.306640625,1.181640625,0.119140625,904198570,3
-0.31640625,1.2265625,0.052734375,904198570,3
-0.328125,1.267578125,0.013671875,904198570,3
-0.337890625,1.306640625,0.021484375,904198570,3
-0.34765625,1.330078125,0.216796875,904198570,3
-0.357421875,1.3203125,0.423828125,904198570,3
-0.3671875,1.376953125,0.3671875,904198570,3
-0.42578125,1.412109375,0.34375,904198570,3
-0.333984375,1.103515625,0.283203125,904198570,3
-0.306640625,1.171875,0.1953125,904198570,3
-0.31640625,1.21875,0.146484375,904198570,3
-0.287109375,1.271484375,0.11328125,904198570,3
-0.337890625,1.298828125,0.154296875,904198570,3
-0.34765625,1.28125,0.412109375,904198570,3
-0.3125,1.283203125,0.55078125,904198570,3
-0.3671875,1.333984375,0.50390625,904198570,3
-0.42578125,1.373046875,0.4765625,904198570,3
-0.486328125,1.396484375,0.4765625,904198570,3
-0.333984375,1.11328125,0.240234375,904198570,3
-0.345703125,1.142578125,0.2890625,904198570,3
-0.31640625,1.197265625,0.275390625,904198570,3
-0.287109375,1.24609375,0.27734375,904198570,3
-0.294921875,1.265625,0.3671875,904198570,3
-0.34765625,1.22265625,0.564453125,904198570,3
-0.3125,1.150390625,0.79296875,904198570,3
-0.275390625,1.126953125,0.90625,904198570,3
-0.33203125,1.25390625,0.78125,904198570,3
-1.23046875,4.13671875,0.724609375,904198570,3
-0.3828125,1.15234375,0.1796875,904198570,3
-0.357421875,1.205078125,0.166015625,904198570,3
-0.3671875,1.248046875,0.142578125,904198570,3
-0.337890625,1.306640625,0.01953125,904198570,3
-0.65234375,1.185546875,0.32421875,904198570,3
-0.626953125,1.21484375,0.42578125,904198570,3
-0.64453125,1.244140625,0.455078125,904198570,3
-0.662109375,1.28515625,0.44921875,904198570,3
-0.345703125,1.138671875,0.296875,904198570,3
-0.357421875,1.189453125,0.255859375,904198570,3
-0.3671875,1.23046875,0.25390625,904198570,3
-0.37890625,1.26953125,0.26171875,904198570,3
-0.3046875,1.337890625,0.22265625,904198570,3
-0.626953125,1.1484375,0.58203125,904198570,3
-0.689453125,1.126953125,0.650390625,904198570,3
-0.615234375,1.265625,0.55859375,904198570,3
-0.630859375,1.310546875,0.548828125,904198570,3
-0.345703125,1.166015625,0.171875,904198570,3
-0.31640625,1.22265625,-0.111328125,904198570,3
-0.3671875,1.099609375,0.607421875,904198570,3
-0.58984375,1.205078125,0.146484375,904198570,3
-0.216796875,1.294921875,0.458984375,904198570,3
-0.3125,1.37890625,0.22265625,904198570,3
-0.4140625,1.37890625,0.310546875,904198570,3
-0.615234375,1.26953125,0.548828125,904198570,3
-0.630859375,1.314453125,0.5390625,904198570,3
-0.3828125,1.138671875,0.24609375,904198570,3
-0.474609375,1.16015625,0.189453125,904198570,3
-0.572265625,1.173828125,0.08984375,904198570,3
-0.6328125,1.19140625,0.01953125,904198570,3
-0.65234375,1.228515625,0.015625,904198570,3
-0.40234375,1.283203125,0.4921875,904198570,3
-0.59765625,1.296875,0.359375,904198570,3
-0.615234375,1.3125,0.43359375,904198570,3
-0.630859375,1.337890625,0.4765625,904198570,3
-0.634765625,1.09765625,0.01953125,904198570,3
-0.267578125,1.197265625,0.03515625,953914882,4
-0.27734375,1.23828125,0.00390625,953914882,4
-0.24609375,1.28125,0.107421875,953914882,4
-0.505859375,1.236328125,0.19140625,953914882,4
-0.435546875,1.28125,0.322265625,953914882,4
-0.447265625,1.296875,0.41015625,953914882,4
-0.275390625,1.142578125,0.888671875,953914882,4
-0.708984375,1.29296875,0.337890625,953914882,4
-0.6796875,1.341796875,0.390625,953914882,4
-0.23046875,1.1953125,-0.15234375,953914882,4
-0.23828125,1.23828125,-0.125,953914882,4
-0.24609375,1.283203125,-0.078125,953914882,4
-0.294921875,1.306640625,0.171875,953914882,4
-0.478515625,1.23828125,0.416015625,953914882,4
-0.447265625,1.26953125,0.490234375,953914882,4
-0.275390625,1.076171875,0.966796875,953914882,4
-0.708984375,1.27734375,0.396484375,953914882,4
-0.6796875,1.314453125,0.4765625,953914882,4
-0.267578125,1.1953125,-0.07421875,953914882,4
-0.27734375,1.236328125,-0.041015625,953914882,4
-0.287109375,1.27734375,0.00390625,953914882,4
-0.337890625,1.3046875,0.078125,953914882,4
-0.3046875,1.251953125,0.521484375,953914882,4
-0.3125,1.064453125,0.904296875,953914882,4
-0.275390625,0.8125,1.1953125,953914882,4
-0.708984375,1.2578125,0.453125,953914882,4
-0.728515625,1.263671875,0.53515625,953914882,4
-0.267578125,1.197265625,0.01171875,953914882,4
-0.27734375,1.236328125,0.046875,953914882,4
-0.328125,1.263671875,0.091796875,953914882,4
-0.337890625,1.296875,0.16796875,953914882,4
-0.34765625,1.3125,0.30078125,953914882,4
-0.357421875,1.34375,0.34375,953914882,4
-0.275390625,1.419921875,-0.271484375,953914882,4
-0.421875,1.2109375,0.423828125,953914882,4
-0.478515625,1.24609375,0.392578125,953914882,4
-0.345703125,1.162109375,0.1875,953914882,4
-0.357421875,1.201171875,0.197265625,953914882,4
-0.3671875,1.23828125,0.208984375,953914882,4
-0.6328125,1.185546875,-0.1328125,953914882,4
-0.609375,1.25,-0.0390625,953914882,4
-0.40234375,1.373046875,-0.009765625,953914882,4
-0.345703125,1.15234375,0.244140625,953914882,4
-0.357421875,1.1875,0.265625,953914882,4
-0.3671875,1.216796875,0.314453125,953914882,4
-0.67578125,1.158203125,-0.15234375,953914882,4
-0.609375,1.25,-0.017578125,953914882,4
-0.58203125,1.30078125,0.138671875,953914882,4
-0.275390625,1.39453125,0.380859375,953914882,4
-0.64453125,1.318359375,0.1328125,953914882,4
-0.189453125,0.63671875,-1.359375,953914882,4
-0.189453125,0.6796875,-1.33984375,953914882,4
-0.689453125,1.287109375,0.193359375,953914882,4
-0.189453125,1.025390625,-1.09765625,953914882,4
-0.146484375,1.236328125,-0.931640625,953914882,4
-0.736328125,1.248046875,0.265625,953914882,4
-0.306640625,1.162109375,0.24609375,1004207415,5
-0.27734375,1.220703125,0.197265625,1004207415,5
-0.287109375,1.146484375,-0.5625,1004207415,5
-0.294921875,1.248046875,-0.421875,1004207415,5
-0.521484375,1.287109375,0.080078125,1004207415,5
-0.626953125,1.265625,0.234375,1004207415,5
-0.59765625,1.251953125,0.494140625,1004207415,5
-0.615234375,1.248046875,0.59765625,1004207415,5
-1.23046875,4.095703125,0.931640625,1004207415,5
-1.2421875,4.126953125,0.97265625,1004207415,5
-0.267578125,1.197265625,0.03515625,1004207415,5
-0.27734375,1.23828125,-0.005859375,1004207415,5
-0.287109375,1.27734375,-0.01171875,1004207415,5
-0.337890625,1.306640625,-0.005859375,1004207415,5
-0.34765625,1.345703125,0.033203125,1004207415,5
-0.134765625,0.46484375,1.34765625,1004207415,5
-0.23046875,1.275390625,0.69921875,1004207415,5
-0.189453125,1.37890625,0.59375,1004207415,5
-0.728515625,1.251953125,0.564453125,1004207415,5
-0.267578125,1.197265625,0.029296875,1004207415,5
-0.27734375,1.236328125,0.01953125,1004207415,5
-0.328125,1.267578125,0.02734375,1004207415,5
-0.337890625,1.306640625,0.044921875,1004207415,5
-0.34765625,1.34375,0.080078125,1004207415,5
-0.4921875,1.330078125,0.197265625,1004207415,5
-0.267578125,1.197265625,0.046875,1004207415,5
-0.27734375,1.236328125,0.052734375,1004207415,5
-0.328125,1.265625,0.068359375,1004207415,5
-0.337890625,1.3046875,0.087890625,1004207415,5
-0.390625,1.330078125,0.11328125,1004207415,5
-0.40234375,1.3671875,0.126953125,1004207415,5
-0.31640625,1.22265625,0.12109375,1004207415,5
-0.328125,1.26171875,0.111328125,1004207415,5
-0.337890625,1.3046875,0.087890625,1004207415,5
-0.34765625,1.345703125,0.04296875,1004207415,5
-0.24609375,1.279296875,-0.1328125,1004207415,5
-0.25390625,1.322265625,-0.107421875,1004207415,5
-0.34765625,1.34375,-0.080078125,1004207415,5
-0.24609375,1.26171875,-0.251953125,1004207415,5
-0.294921875,1.296875,-0.23046875,1004207415,5
-0.34765625,1.328125,-0.22265625,1004207415,5
-0.287109375,1.271484375,-0.125,1004207415,5
-0.294921875,1.310546875,-0.126953125,1004207415,5
-0.34765625,1.341796875,-0.111328125,1004207415,5
-0.58984375,1.205078125,-0.142578125,1004207415,5
-0.61328125,1.15234375,-0.09375,1004207415,5
-0.6328125,1.189453125,-0.078125,1004207415,5
-0.65234375,1.2265625,-0.05859375,1004207415,5
-0.716796875,1.23828125,-0.078125,1004207415,5
-0.654296875,1.1328125,0.04296875,1004207415,5
-0.67578125,1.169921875,-0.001953125,1004207415,5
-0.609375,1.25,-0.037109375,1004207415,5
-0.58203125,1.306640625,0.0546875,1004207415,5
-0.328125,1.267578125,0.03125,1004207415,5
-0.294921875,1.31640625,0.01953125,1004207415,5
-0.34765625,1.328125,0.21875,1004207415,5
-0.537109375,1.302734375,0.25,1004207415,5
-0.59765625,1.318359375,0.2734375,1004207415,5
-0.615234375,1.341796875,0.337890625,1004207415,5
-0.345703125,1.166015625,0.1640625,1004207415,5
-0.31640625,1.21484375,0.171875,1004207415,5
-0.287109375,1.26171875,0.203125,1004207415,5
-0.294921875,1.294921875,0.23828125,1004207415,5
-0.564453125,1.267578125,-0.091796875,1004207415,5
-0.267578125,1.07421875,0.52734375,1054031878,6
-0.435546875,1.181640625,0.154296875,1054031878,6
-0.408203125,1.212890625,0.2734375,1054031878,6
-0.421875,1.232421875,0.353515625,1054031878,6
-0.478515625,1.220703125,0.462890625,1054031878,6
-0.357421875,1.25,0.6015625,1054031878,6
-0.275390625,1.416015625,0.29296875,1054031878,6
-0.662109375,1.140625,0.7421875,1054031878,6
-0.6796875,1.1953125,0.724609375,1054031878,6
-0.421875,1.087890625,0.3828125,1054031878,6
-0.435546875,1.126953125,0.3828125,1054031878,6
-0.408203125,1.201171875,0.318359375,1054031878,6
-0.337890625,1.28125,0.2578125,1054031878,6
-0.478515625,1.2734375,0.29296875,1054031878,6
-0.1796875,1.26953125,0.638671875,1054031878,6
-0.275390625,1.29296875,0.6484375,1054031878,6
-0.33203125,1.326171875,0.650390625,1054031878,6
-0.33984375,1.345703125,0.701171875,1054031878,6
-0.1796875,1.26953125,0.638671875,1054031878,6
-0.23046875,1.26171875,0.72265625,1054031878,6
-0.283203125,1.265625,0.78125,1054031878,6
-0.33984375,1.259765625,0.845703125,1054031878,6
-0.609375,1.244140625,0.126953125,1054031878,6
-0.357421875,1.21484375,0.076171875,1054031878,6
-0.3671875,1.251953125,0.10546875,1054031878,6
-0.37890625,1.287109375,0.15234375,1054031878,6
-0.58203125,1.283203125,0.251953125,1054031878,6
-0.345703125,1.173828125,0.087890625,1054031878,6
-0.357421875,1.2109375,0.12109375,1054031878,6
-0.3671875,1.248046875,0.140625,1054031878,6
-0.37890625,1.283203125,0.173828125,1054031878,6
-0.26171875,1.3515625,0.1953125,1054031878,6
-0.4921875,1.32421875,0.228515625,1054031878,6
-0.552734375,1.333984375,0.291015625,1054031878,6
-0.568359375,1.369140625,0.30859375,1054031878,6
-0.345703125,1.1640625,0.177734375,1054031878,6
-0.357421875,1.189453125,0.259765625,1054031878,6
-0.328125,1.072265625,0.67578125,1054031878,6
-0.37890625,1.29296875,0.08984375,1054031878,6
-0.435546875,1.296875,0.255859375,1054031878,6
-0.537109375,1.271484375,0.3828125,1054031878,6
-0.59765625,1.2734375,0.4375,1054031878,6
-0.615234375,1.33203125,0.369140625,1054031878,6
-0.630859375,1.357421875,0.416015625,1054031878,6
-0.6484375,1.369140625,0.5,1054031878,6
-0.306640625,1.15234375,0.291015625,1054031878,6
-0.23828125,1.171875,0.423828125,1054031878,6
-0.408203125,1.232421875,0.169921875,1054031878,6
-0.421875,1.25390625,0.267578125,1054031878,6
-0.478515625,1.251953125,0.369140625,1054031878,6
-0.537109375,1.203125,0.55859375,1054031878,6
-0.59765625,1.259765625,0.470703125,1054031878,6
-0.615234375,1.3125,0.435546875,1054031878,6
-0.58203125,1.34765625,0.51171875,1054031878,6
-0.59765625,1.35546875,0.59375,1054031878,6
-0.59765625,1.091796875,0.787109375,1054031878,6
-0.189453125,1.501953125,-0.0234375,1054031878,6
-0.146484375,1.509765625,-0.341796875,1054031878,6
0.0,0.86328125,1.08984375,1054031878,6
-1.064453125,0.0,-1.189453125,1054031878,6
