0.298828125,3.17578125,-0.080078125,2702879403,284
0.404296875,3.203125,-0.15234375,2702879403,284
0.306640625,3.2578125,0.056640625,2702879403,284
0.4140625,3.0078125,-1.328125,2702879403,284
0.314453125,3.201171875,-0.94921875,2702879403,284
0.318359375,3.166015625,-1.185546875,2702879403,284
0.134765625,4.228515625,-0.74609375,2702879403,284
0.0,4.1796875,-1.150390625,2702879403,284
0.0,4.154296875,-1.376953125,2702879403,284
0.298828125,3.1484375,0.423828125,2702879403,284
0.302734375,3.197265625,0.36328125,2702879403,284
0.306640625,3.240234375,0.349609375,2702879403,284
0.4140625,2.98828125,-1.369140625,2702879403,284
0.419921875,3.0859375,-1.244140625,2702879403,284
0.423828125,3.103515625,-1.30859375,2702879403,284
0.0,4.248046875,-0.22265625,2702879403,284
0.0,4.287109375,-0.263671875,2702879403,284
0.0,4.267578125,-0.771484375,2702879403,284
0.0,4.134765625,-1.4375,2702879403,284
-0.638671875,2.833984375,4.20703125,2702879403,284
-0.482421875,3.048828125,4.126953125,2702879403,284
0.0,2.947265625,1.224609375,2702879403,284
0.302734375,3.171875,0.537109375,2702879403,284
0.306640625,3.24609375,0.2890625,2702879403,284
0.310546875,3.294921875,-0.1640625,2702879403,284
0.314453125,2.392578125,-2.330078125,2702879403,284
-0.634765625,2.158203125,4.546875,2702879403,284
-0.638671875,2.2734375,4.53515625,2702879403,284
-0.64453125,2.548828125,4.43359375,2702879403,284
0.294921875,3.13671875,0.015625,2702879403,284
0.3984375,3.166015625,0.0390625,2702879403,284
0.302734375,3.212890625,0.18359375,2702879403,284
0.306640625,3.248046875,0.244140625,2702879403,284
0.310546875,3.294921875,0.162109375,2702879403,284
0.419921875,3.32421875,0.17578125,2702879403,284
0.294921875,3.130859375,0.18359375,2702879403,284
0.298828125,3.1640625,0.275390625,2702879403,284
0.302734375,3.19921875,0.337890625,2702879403,284
0.306640625,3.23828125,0.365234375,2702879403,284
0.310546875,3.287109375,0.28515625,2702879403,284
0.314453125,3.337890625,0.076171875,2702879403,284
0.423828125,3.3671875,-0.091796875,2702879403,284
0.197265625,3.107421875,0.478515625,2702879403,284
0.19921875,3.15234375,0.455078125,2702879403,284
0.201171875,3.1953125,0.44140625,2702879403,284
0.306640625,3.23046875,0.427734375,2702879403,284
0.20703125,3.294921875,0.279296875,2702879403,284
0.314453125,3.33984375,0.056640625,2702879403,284
0.318359375,3.36328125,-0.34765625,2702879403,284
0.322265625,3.302734375,-0.892578125,2702879403,284
0.291015625,3.09375,-0.095703125,2702879403,284
0.294921875,3.134765625,-0.0703125,2702879403,284
0.298828125,3.17578125,0.076171875,2702879403,284
0.201171875,3.203125,0.37890625,2702879403,284
0.205078125,3.25390625,0.283203125,2702879403,284
0.20703125,3.306640625,0.07421875,2702879403,284
0.212890625,3.380859375,-0.234375,2702879403,284
0.291015625,3.091796875,0.123046875,2702879403,284
0.294921875,3.1328125,0.14453125,2702879403,284
0.298828125,3.173828125,0.140625,2702879403,284
0.201171875,3.224609375,-0.01171875,2702879403,284
0.1015625,3.26953125,-0.068359375,2702879403,284
0.20703125,3.302734375,0.16796875,2702879403,284
0.6796875,1.45703125,-2.66015625,2702879403,284
0.3984375,3.166015625,0.015625,2752874703,285
0.505859375,3.19140625,1.43359375,2752874703,285
2.513671875,1.0,-15.998046875,2752874703,285
53.5,0.00390625,-17.0,2752874703,285
0.5,0.0,0.5,2752874703,285
28.0,4.5,6.0,2752874703,285
-57.501953125,22.0,6.5,2752874703,285
-62.501953125,-10.0,7.498046875,2752874703,285
-37.501953125,-42.0,7.5,2752874703,285
-45.501953125,-19.5,8.0,2752874703,285
-15.501953125,-36.0,8.5,2752874703,285
-1.501953125,-45.0,47.0,2752874703,285
-45.5,-26.486328125,47.5,2752874703,285
-35.5,-20.486328125,48.0,2752874703,285
-26.5,-4.986328125,48.5,2752874703,285
-16.5,-3.986328125,49.5,2752874703,285
-8.5,57.513671875,50.001953125,2752874703,285
3.0,50.515625,6.501953125,2752874703,285
56.998046875,-11.5,7.498046875,2752874703,285
59.99609375,-17.0,46.998046875,2752874703,285
61.5,25.513671875,47.001953125,2752874703,285
-57.5,12.513671875,47.501953125,2752874703,285
-48.498046875,-9.486328125,46.5,2752874703,285
48.5,-35.986328125,47.001953125,2752874703,285
60.0,-39.986328125,47.501953125,2752874703,285
-55.5,62.513671875,47.001953125,2752874703,285
41.5,30.013671875,47.50390625,2752874703,285
53.0,28.013671875,49.50390625,2752874703,285
8.0,18.015625,50.0,2752874703,285
15.001953125,3.015625,6.0,2752874703,285
-49.501953125,-7.0,6.998046875,2752874703,285
-61.001953125,-30.0,7.498046875,2752874703,285
6.0,-7.498046875,7.998046875,2752874703,285
-34.501953125,-28.5,8.0,2752874703,285
6.998046875,61.001953125,47.5,2752874703,285
-29.5,3.513671875,48.0,2752874703,285
-19.5,32.013671875,48.5,2752874703,285
-10.5,63.513671875,6.0,2752874703,285
-49.001953125,0.0,6.5,2752874703,285
-56.501953125,-17.5,7.498046875,2752874703,285
42.99609375,-45.0,7.998046875,2752874703,285
-32.001953125,-31.0,8.0,2752874703,285
-0.501953125,-58.0,8.5,2752874703,285
16.498046875,54.501953125,47.0,2752874703,285
-41.5,52.513671875,47.5,2752874703,285
-31.5,57.513671875,48.0,2752874703,285
-22.5,-47.486328125,48.5,2752874703,285
-16.0,-21.486328125,49.0,2752874703,285
-3.5,-38.486328125,7.0,2752874703,285
61.99609375,-35.5,7.998046875,2752874703,285
62.99609375,-43.0,8.498046875,2752874703,285
40.99609375,58.0,8.998046875,2752874703,285
39.99609375,51.5,47.998046875,2752874703,285
-52.50390625,4.5078125,6.48828125,2752874703,285
0.0,-20.5,6.5,2752874703,285
-2.0,-8.0,7.498046875,2752874703,285
0.49609375,62.5,7.998046875,2752874703,285
0.0,28.0,8.001953125,2752874703,285
0.49609375,-6.5,7.49609375,2752874703,285
-36.001953125,-44.0,8.0,2752874703,285
0.49609375,-5.5,8.99609375,2752874703,285
0.49609375,-9.5,6.49609375,2752874703,285
-53.341796875,0.0,3.5,2752874703,285
3.005859375,4.009765625,2.513671875,2752874703,285
0.115234375,3.677734375,0.1171875,667866830,2
0.1171875,3.720703125,0.052734375,667866830,2
0.0,3.76171875,-0.099609375,667866830,2
0.23828125,3.794921875,0.08984375,667866830,2
0.361328125,3.81640625,0.294921875,667866830,2
0.365234375,3.84375,0.4375,667866830,2
0.3671875,3.892578125,0.357421875,667866830,2
0.115234375,3.666015625,0.3203125,667866830,2
0.1171875,3.708984375,0.296875,667866830,2
0.1171875,3.720703125,0.546875,667866830,2
0.23828125,3.765625,0.490234375,667866830,2
0.240234375,3.79296875,0.583984375,667866830,2
0.2421875,3.822265625,0.662109375,667866830,2
0.3671875,3.841796875,0.720703125,667866830,2
0.0,3.62890625,0.625,667866830,2
0.1171875,3.66015625,0.669921875,667866830,2
0.1171875,3.708984375,0.62890625,667866830,2
0.23828125,3.7578125,0.548828125,667866830,2
0.240234375,3.78125,0.66015625,667866830,2
0.2421875,3.7265625,1.072265625,667866830,2
0.24609375,3.798828125,0.962890625,667866830,2
0.23828125,3.75,0.59375,667866830,2
0.240234375,3.794921875,0.5703125,667866830,2
0.2421875,3.84765625,0.486328125,667866830,2
0.23828125,3.7734375,0.41796875,667866830,2
0.240234375,3.8359375,0.138671875,667866830,2
0.0,3.859375,-0.44921875,667866830,2
0.115234375,3.591796875,0.796875,717751501,3
0.1171875,3.658203125,0.681640625,717751501,3
0.1171875,3.73046875,0.486328125,717751501,3
0.0,3.7734375,0.48046875,717751501,3
0.0,3.806640625,0.54296875,717751501,3
0.0,3.677734375,0.57421875,717751501,3
0.0,3.701171875,0.677734375,717751501,3
0.0,3.744140625,0.669921875,717751501,3
0.0,3.798828125,0.591796875,717751501,3
0.0,3.634765625,0.798828125,717751501,3
-0.1171875,3.662109375,0.85546875,717751501,3
-0.119140625,3.70703125,0.84375,717751501,3
0.0,3.767578125,0.767578125,717751501,3
0.23046875,3.65234375,0.40625,717751501,3
0.232421875,3.703125,0.302734375,717751501,3
0.234375,3.75,0.216796875,717751501,3
0.0,3.568359375,0.71875,717751501,3
0.23046875,3.63671875,0.52734375,717751501,3
0.232421875,3.69140625,0.421875,717751501,3
0.234375,3.736328125,0.376953125,717751501,3
0.23828125,3.78515625,0.30078125,717751501,3
0.232421875,3.71484375,0.0859375,767791368,4
0.234375,3.74609375,0.26953125,767791368,4
0.23828125,3.791015625,0.205078125,767791368,4
0.12109375,3.841796875,0.06640625,767791368,4
0.2421875,3.861328125,0.357421875,767791368,4
0.232421875,3.701171875,0.33203125,767791368,4
0.1171875,3.728515625,0.498046875,767791368,4
0.0,3.75390625,0.619140625,767791368,4
0.0,3.802734375,0.5703125,767791368,4
0.0,3.857421875,0.466796875,767791368,4
0.0,3.63671875,0.96875,767791368,4
0.0,3.703125,0.869140625,767791368,4
0.0,3.767578125,0.771484375,767791368,4
0.232421875,3.71484375,0.0859375,767791368,4
0.353515625,3.74609375,-0.078125,767791368,4
0.357421875,3.78515625,-0.134765625,767791368,4
0.361328125,3.828125,-0.017578125,767791368,4
0.2421875,3.87890625,0.041015625,767791368,4
0.232421875,3.712890625,-0.115234375,767791368,4
0.353515625,3.74609375,0.109375,767791368,4
0.23828125,3.796875,0.0078125,767791368,4
0.361328125,3.826171875,-0.107421875,767791368,4
0.2421875,3.875,0.17578125,767791368,4
0.0,3.673828125,0.2265625,817964305,5
0.1171875,3.720703125,0.07421875,817964305,5
0.1171875,3.759765625,0.13671875,817964305,5
0.119140625,3.751953125,0.615234375,817964305,5
0.240234375,3.78515625,0.63671875,817964305,5
0.2421875,3.822265625,0.66015625,817964305,5
0.24609375,3.853515625,0.7109375,817964305,5
0.0,3.69921875,0.4140625,817964305,5
0.0,3.712890625,0.615234375,817964305,5
0.0,3.734375,0.73046875,817964305,5
-0.12109375,3.765625,0.771484375,817964305,5
-0.1171875,3.662109375,0.85546875,817964305,5
-0.119140625,3.703125,0.865234375,817964305,5
-0.12109375,3.76171875,0.783203125,817964305,5
0.23046875,3.671875,0.154296875,817964305,5
0.232421875,3.71484375,0.080078125,817964305,5
0.23046875,3.650390625,0.419921875,817964305,5
0.232421875,3.697265625,0.357421875,817964305,5
0.115234375,3.64453125,0.50390625,817964305,5
0.115234375,3.677734375,0.130859375,817964305,5
0.1171875,3.720703125,-0.06640625,817964305,5
0.1171875,3.7578125,-0.173828125,817964305,5
0.23828125,3.796875,0.0625,817964305,5
0.361328125,3.822265625,0.220703125,817964305,5
0.2421875,3.873046875,0.189453125,817964305,5
0.0,3.681640625,0.04296875,817964305,5
0.1171875,3.720703125,-0.03125,817964305,5
0.1171875,3.76171875,-0.04296875,817964305,5
0.23828125,3.787109375,0.28125,817964305,5
0.240234375,3.814453125,0.419921875,817964305,5
0.365234375,3.84375,0.439453125,817964305,5
0.3671875,3.873046875,0.53515625,817964305,5
0.0,3.681640625,-0.041015625,867920836,6
0.1171875,3.71484375,0.205078125,867920836,6
0.1171875,3.744140625,0.365234375,867920836,6
0.119140625,3.787109375,0.333984375,867920836,6
0.12109375,3.83984375,0.181640625,867920836,6
-0.333984375,1.802734375,-3.05078125,867920836,6
-0.337890625,1.630859375,-3.19140625,867920836,6
0.115234375,3.67578125,0.1640625,867920836,6
0.1171875,3.697265625,0.419921875,867920836,6
-0.333984375,1.9296875,-2.97265625,867920836,6
-0.44921875,1.716796875,-3.130859375,867920836,6
-0.4453125,1.857421875,-3.001953125,867920836,6
-0.337890625,1.85546875,-3.06640625,867920836,6
-0.44921875,2.013671875,-2.951171875,867920836,6
0.0,3.73828125,0.44140625,867920836,6
0.0,3.7890625,0.333984375,867920836,6
0.0,3.841796875,0.181640625,867920836,6
0.0,3.662109375,0.865234375,867920836,6
0.0,3.751953125,0.626953125,867920836,6
0.0,3.81640625,0.46484375,867920836,6
0.232421875,3.7109375,-0.158203125,867920836,6
0.234375,3.755859375,0.0859375,867920836,6
0.119140625,3.791015625,0.28125,867920836,6
0.12109375,3.826171875,0.37109375,867920836,6
0.115234375,3.673828125,-0.205078125,867920836,6
0.1171875,3.720703125,-0.02734375,867920836,6
0.234375,3.75390625,0.103515625,867920836,6
0.23828125,3.791015625,0.205078125,867920836,6
0.240234375,3.828125,0.2734375,867920836,6
0.12109375,3.873046875,0.287109375,867920836,6
1.01171875,3.42578125,0.4375,867920836,6
