-0.294921875,1.84765625,0.201171875,2364266297,204
-0.240234375,1.904296875,0.099609375,2364266297,204
-0.24609375,1.947265625,-0.021484375,2364266297,204
-0.1875,1.990234375,-0.150390625,2364266297,204
-0.19140625,2.025390625,-0.203125,2364266297,204
-0.130859375,2.052734375,-0.345703125,2364266297,204
-0.6640625,1.90625,0.671875,2364266297,204
-0.54296875,2.037109375,0.509765625,2364266297,204
-0.482421875,2.125,0.359375,2364266297,204
-0.294921875,1.826171875,0.34765625,2364266297,204
-0.30078125,1.875,0.3046875,2364266297,204
-0.306640625,1.9140625,1.310546875,2364266297,204
2.513671875,1.0,-47.998046875,2364266297,204
0.5,0.0,-32.0,2364266297,204
0.5,0.0,0.5,2364266297,204
15.0,4.5,23.5,2364266297,204
-30.001953125,62.005859375,24.498046875,2364266297,204
-19.501953125,59.505859375,24.998046875,2364266297,204
55.99609375,-33.49609375,25.00390625,2364266297,204
18.99609375,15.005859375,25.50390625,2364266297,204
11.49609375,30.505859375,23.00390625,2364266297,204
39.99609375,-8.994140625,23.5,2364266297,204
-27.001953125,-41.494140625,24.498046875,2364266297,204
-18.001953125,-3.994140625,24.998046875,2364266297,204
-11.001953125,18.505859375,25.0,2364266297,204
-14.00390625,-55.994140625,23.5,2364266297,204
-25.501953125,-0.494140625,24.498046875,2364266297,204
-19.001953125,33.005859375,24.5,2364266297,204
-14.001953125,58.505859375,25.0,2364266297,204
-25.00390625,-23.994140625,24.0,2364266297,204
-57.50390625,20.005859375,24.501953125,2364266297,204
-55.50390625,44.505859375,25.001953125,2364266297,204
-52.00390625,46.505859375,25.501953125,2364266297,204
17.998046875,-19.4921875,23.998046875,2364266297,204
-39.00390625,2.505859375,24.0,2364266297,204
42.49609375,-52.994140625,24.501953125,2364266297,204
58.49609375,-50.994140625,25.001953125,2364266297,204
-60.00390625,-60.994140625,25.501953125,2364266297,204
47.99609375,-27.994140625,26.001953125,2364266297,204
48.998046875,-59.994140625,24.50390625,2364266297,204
-15.001953125,1.505859375,25.998046875,2364266297,204
17.998046875,17.0078125,23.0,2364266297,204
56.498046875,62.005859375,25.99609375,2364266297,204
28.49609375,-26.494140625,25.501953125,2364266297,204
18.498046875,-6.9921875,26.498046875,2364266297,204
-44.005859375,-61.994140625,6.498046875,2364266297,204
1.158203125,2.001953125,3.005859375,2364266297,204
-15.998046875,0.001953125,33.5,2364266297,204
44.0,-42.66796875,17.828125,2364266297,204
0.5,0.0,-44.0,2364266297,204
26.5,0.0,43.0,2364266297,204
27.0,0.0,-60.0,2364266297,204
27.5,0.0,47.5,2364266297,204
23.0,0.5,17.0,2364266297,204
23.5,0.5,33.0,2364266297,204
24.0,0.5,34.5,2364266297,204
24.5,0.5,22.5,2364266297,204
25.498046875,0.5,29.0,2364266297,204
25.501953125,0.5,46.0,2364266297,204
26.001953125,0.5,47.0,2364266297,204
26.5,0.5,-13.5,2364266297,204
27.0,0.5,54.5,2364266297,204
27.5,0.5,3.5,2364266297,204
28.0,0.5,34.5,2364266297,204
-0.6328125,1.72265625,0.150390625,2879577234,3
-0.587890625,1.775390625,0.212890625,2879577234,3
-0.6015625,1.81640625,0.193359375,2879577234,3
-0.552734375,1.875,0.18359375,2879577234,3
-0.626953125,1.890625,0.23046875,2879577234,3
-0.703125,1.896484375,0.30078125,2879577234,3
-0.48046875,1.83984375,0.27734375,2879577234,3
-0.490234375,1.87109375,0.3359375,2879577234,3
-0.626953125,1.822265625,0.552734375,2879577234,3
-0.703125,1.75390625,0.783203125,2879577234,3
-0.552734375,1.822265625,0.482421875,2879577234,3
-0.626953125,1.77734375,0.68359375,2879577234,3
-0.646484375,1.765625,-0.041015625,2879577234,3
-0.66015625,1.802734375,-0.0859375,2879577234,3
-0.490234375,1.900390625,0.05859375,2879577234,3
-0.501953125,1.9375,0.125,2879577234,3
-0.6328125,1.7265625,0.06640625,2879577234,3
-0.646484375,1.765625,0.0703125,2879577234,3
-0.6015625,1.82421875,0.091796875,2879577234,3
-0.490234375,1.892578125,0.171875,2879577234,3
-0.501953125,1.91796875,0.29296875,2879577234,3
-0.576171875,1.92578125,0.376953125,2879577234,3
-0.345703125,2.15625,0.330078125,2879577234,3
-0.4375,1.84375,0.65234375,2929438166,4
-0.482421875,2.099609375,0.4921875,2929438166,4
-0.646484375,1.75390625,0.212890625,2929438166,4
-0.6015625,1.80859375,0.255859375,2929438166,4
-0.490234375,1.8359375,0.49609375,2929438166,4
-0.501953125,1.83984375,0.6171875,2929438166,4
-0.576171875,1.85546875,0.638671875,2929438166,4
-0.5859375,1.849609375,0.767578125,2929438166,4
-0.482421875,2.068359375,0.603515625,2929438166,4
-0.552734375,1.779296875,0.6171875,2929438166,4
-0.501953125,1.775390625,0.783203125,2929438166,4
-0.576171875,1.791015625,0.8046875,2929438166,4
-0.541015625,1.841796875,0.1171875,2929438166,4
-0.490234375,1.890625,0.1953125,2929438166,4
-0.501953125,1.919921875,0.28515625,2929438166,4
-0.576171875,1.931640625,0.34375,2929438166,4
-0.470703125,1.80859375,0.220703125,2979837019,5
-0.361328125,1.8828125,0.142578125,2979837019,5
-0.3671875,1.9140625,0.240234375,2979837019,5
-0.4375,1.8984375,0.46875,2979837019,5
-0.447265625,1.927734375,0.517578125,2979837019,5
-0.390625,1.9921875,0.48046875,2979837019,5
-0.271484375,2.12890625,0.30859375,2979837019,5
-0.345703125,2.16015625,0.30078125,2979837019,5
-0.28125,2.20703125,0.3359375,2979837019,5
-0.357421875,2.228515625,0.38671875,2979837019,5
-0.470703125,1.798828125,0.287109375,2979837019,5
-0.419921875,1.849609375,0.310546875,2979837019,5
-0.3671875,1.888671875,0.38671875,2979837019,5
-0.375,1.892578125,0.541015625,2979837019,5
-0.447265625,1.89453125,0.62890625,2979837019,5
-0.390625,1.966796875,0.576171875,2979837019,5
-0.337890625,2.095703125,0.443359375,2979837019,5
-0.345703125,2.13671875,0.443359375,2979837019,5
-0.3515625,2.169921875,0.474609375,2979837019,5
-0.4296875,2.177734375,0.56640625,2979837019,5
-0.564453125,0.833984375,2.373046875,2979837019,5
-0.419921875,1.826171875,0.4296875,2979837019,5
-0.3671875,1.857421875,0.521484375,2979837019,5
-0.4375,1.8359375,0.67578125,2979837019,5
-0.447265625,1.853515625,0.73828125,2979837019,5
-0.390625,1.91796875,0.72265625,2979837019,5
-0.337890625,2.068359375,0.552734375,2979837019,5
-0.345703125,2.1015625,0.5859375,2979837019,5
-0.3515625,2.13671875,0.609375,2979837019,5
-0.4296875,2.146484375,0.67578125,2979837019,5
-0.345703125,2.0703125,0.689453125,2979837019,5
-0.3515625,2.109375,0.697265625,2979837019,5
-0.529296875,1.8046875,0.025390625,2979837019,5
-0.419921875,1.873046875,0.091796875,2979837019,5
-0.3671875,1.923828125,0.123046875,2979837019,5
-0.3125,1.970703125,0.189453125,2979837019,5
-0.412109375,1.8359375,0.0234375,3029696706,6
-0.361328125,1.888671875,0.044921875,3029696706,6
-0.3671875,1.927734375,0.0625,3029696706,6
-0.564453125,1.85546875,0.5078125,3029696706,6
-0.576171875,1.92578125,0.3828125,3029696706,6
-0.65234375,1.96484375,0.255859375,3029696706,6
-0.275390625,2.154296875,0.404296875,3029696706,6
-0.28125,2.197265625,0.3984375,3029696706,6
-0.576171875,1.736328125,0.2109375,3029696706,6
-0.470703125,1.8125,0.181640625,3029696706,6
-0.361328125,1.880859375,0.16796875,3029696706,6
-0.4296875,1.904296875,0.205078125,3029696706,6
-0.564453125,1.802734375,0.671875,3029696706,6
-0.576171875,1.89453125,0.51171875,3029696706,6
-0.65234375,1.939453125,0.408203125,3029696706,6
-0.345703125,2.1171875,0.5234375,3029696706,6
-0.3515625,2.16015625,0.5234375,3029696706,6
-0.412109375,1.8203125,0.23828125,3029696706,6
-0.419921875,1.853515625,0.2890625,3029696706,6
-0.4296875,1.8828125,0.3515625,3029696706,6
-0.626953125,1.650390625,0.94921875,3029696706,6
-0.576171875,1.869140625,0.599609375,3029696706,6
-0.716796875,1.90234375,0.470703125,3029696706,6
-0.275390625,2.0625,0.7421875,3029696706,6
-0.3515625,2.111328125,0.6953125,3029696706,6
-0.529296875,1.802734375,0.095703125,3029696706,6
-0.419921875,1.876953125,0.013671875,3029696706,6
-0.4296875,1.916015625,0.041015625,3029696706,6
-0.576171875,1.939453125,0.294921875,3029696706,6
1.50390625,1.318359375,0.140625,3029696706,6
1.44140625,1.36328125,0.2890625,3029696706,6
-0.064453125,0.869140625,1.896484375,3029696706,6
