0.357421875,1.083984375,0.09765625,1414009258,1
0.333984375,1.12109375,0.197265625,1414009258,1
0.345703125,1.154296875,0.232421875,1414009258,1
0.357421875,1.201171875,0.19921875,1414009258,1
0.408203125,1.234375,0.142578125,1414009258,1
0.421875,1.25390625,0.267578125,1414009258,1
0.435546875,1.244140625,0.447265625,1414009258,1
0.537109375,1.1796875,0.607421875,1414009258,1
0.322265625,1.083984375,0.181640625,1414009258,1
0.37109375,1.1171875,0.1484375,1414009258,1
0.345703125,1.158203125,0.21484375,1414009258,1
0.31640625,1.1953125,0.28125,1414009258,1
0.287109375,1.234375,0.33203125,1414009258,1
0.294921875,1.185546875,0.572265625,1414009258,1
0.26171875,1.064453125,0.85546875,1414009258,1
0.1796875,0.701171875,1.236328125,1414009258,1
0.64453125,1.2109375,0.53515625,1414009258,1
0.357421875,1.064453125,0.228515625,1414009258,1
0.37109375,1.107421875,0.208984375,1414009258,1
0.345703125,1.158203125,0.21875,1414009258,1
0.357421875,1.1953125,0.232421875,1414009258,1
0.328125,1.240234375,0.259765625,1414009258,1
0.337890625,1.25,0.3828125,1414009258,1
0.357421875,1.0625,0.236328125,1414009258,1
0.37109375,1.1015625,0.232421875,1414009258,1
0.3828125,1.134765625,0.263671875,1414009258,1
0.357421875,1.177734375,0.3046875,1414009258,1
0.328125,1.22265625,0.33203125,1414009258,1
0.322265625,1.0625,0.27734375,1414009258,1
0.37109375,1.09375,0.26953125,1414009258,1
0.3828125,1.123046875,0.310546875,1414009258,1
0.357421875,1.189453125,0.259765625,1414009258,1
0.333984375,1.07421875,0.376953125,1414009258,1
0.072265625,0.314453125,1.099609375,1414009258,1
0.037109375,0.435546875,1.103515625,1414009258,1
0.0390625,0.5546875,1.09375,1414009258,1
0.03515625,0.224609375,1.080078125,1414009258,1
0.03515625,0.26953125,1.11328125,1414009258,1
0.037109375,0.33203125,1.138671875,1414009258,1
0.076171875,0.4140625,1.15234375,1414009258,1
0.0390625,0.62890625,1.099609375,1414009258,1
0.171875,1.08984375,0.025390625,1414009258,1
0.1796875,1.130859375,0.015625,1414009258,1
0.22265625,1.166015625,0.0,1414009258,1
0.19140625,1.2109375,-0.025390625,1414009258,1
0.23828125,1.244140625,-0.07421875,1414009258,1
0.171875,1.08984375,0.06640625,1414009258,1
0.21484375,1.123046875,0.06640625,1414009258,1
0.22265625,1.1640625,0.041015625,1414009258,1
0.23046875,1.205078125,0.00390625,1414009258,1
0.27734375,1.232421875,-0.1015625,1414009258,1
0.2421875,1.076171875,0.046875,1414009258,1
0.25,1.1171875,0.033203125,1414009258,1
0.259765625,1.158203125,0.021484375,1414009258,1
0.23046875,1.205078125,0.05078125,1414009258,1
0.27734375,1.2265625,0.16796875,1414009258,1
0.328125,1.25390625,0.189453125,1414009258,1
0.21484375,1.125,0.04296875,1414009258,1
0.185546875,1.16796875,0.087890625,1414009258,1
0.267578125,1.185546875,0.171875,1414009258,1
0.27734375,1.22265625,0.19140625,1414009258,1
0.328125,1.25390625,0.189453125,1414009258,1
0.259765625,1.15625,0.0546875,1414009258,1
0.306640625,1.18359375,0.099609375,1414009258,1
0.333984375,1.138671875,-0.03515625,1464007588,2
0.267578125,1.1953125,-0.083984375,1464007588,2
0.31640625,1.228515625,-0.01953125,1464007588,2
0.3671875,1.25,0.126953125,1464007588,2
0.37890625,1.265625,0.271484375,1464007588,2
0.435546875,1.296875,0.248046875,1464007588,2
0.18359375,0.48828125,-1.376953125,1464007588,2
0.296875,1.146484375,0.076171875,1464007588,2
0.267578125,1.1953125,0.0625,1464007588,2
0.23828125,1.24609375,0.0078125,1464007588,2
0.408203125,1.228515625,0.185546875,1464007588,2
0.421875,1.26953125,0.17578125,1464007588,2
0.478515625,1.29296875,0.19140625,1464007588,2
0.224609375,1.30078125,-0.5546875,1464007588,2
0.689453125,1.25,0.359375,1464007588,2
0.189453125,0.81640625,-1.259765625,1464007588,2
0.296875,1.14453125,0.0859375,1464007588,2
0.306640625,1.185546875,0.08984375,1464007588,2
0.27734375,1.234375,0.0859375,1464007588,2
0.205078125,1.283203125,0.15234375,1464007588,2
0.337890625,1.283203125,0.25,1464007588,2
0.435546875,1.294921875,0.265625,1464007588,2
0.626953125,1.169921875,0.537109375,1464007588,2
0.64453125,1.244140625,0.455078125,1464007588,2
0.662109375,1.2890625,0.4375,1464007588,2
0.6796875,1.3359375,0.408203125,1464007588,2
0.296875,1.14453125,0.09375,1464007588,2
0.306640625,1.18359375,0.09765625,1464007588,2
0.31640625,1.224609375,0.078125,1464007588,2
0.408203125,1.2421875,-0.03125,1464007588,2
0.16796875,1.24609375,0.4921875,1464007588,2
0.505859375,1.279296875,0.5234375,1464007588,2
0.51953125,1.30859375,0.556640625,1464007588,2
0.20703125,1.08203125,-0.087890625,1464007588,2
0.21484375,1.12109375,-0.09765625,1464007588,2
0.259765625,1.15234375,-0.099609375,1464007588,2
0.306640625,1.1875,-0.017578125,1464007588,2
0.31640625,1.2265625,0.068359375,1464007588,2
0.287109375,1.267578125,0.15234375,1464007588,2
0.20703125,1.083984375,0.013671875,1464007588,2
0.21484375,1.125,0.0,1464007588,2
0.22265625,1.166015625,-0.021484375,1464007588,2
0.23046875,1.203125,-0.068359375,1464007588,2
0.27734375,1.212890625,-0.244140625,1464007588,2
0.171875,1.087890625,0.087890625,1464007588,2
0.1796875,1.12890625,0.07421875,1464007588,2
0.185546875,1.169921875,0.056640625,1464007588,2
0.19140625,1.212890625,0.013671875,1464007588,2
0.197265625,1.251953125,-0.048828125,1464007588,2
0.154296875,1.21484375,0.080078125,1464007588,2
0.119140625,0.955078125,0.826171875,1464007588,2
0.287109375,1.21484375,0.39453125,1464007588,2
0.337890625,1.25390625,0.3671875,1464007588,2
0.390625,1.2890625,0.345703125,1464007588,2
0.447265625,1.359375,-0.060546875,1464007588,2
0.23046875,1.1875,-0.201171875,1464007588,2
0.158203125,1.1484375,-0.515625,1464007588,2
0.205078125,1.1015625,0.67578125,1464007588,2
0.294921875,1.2265625,0.478515625,1464007588,2
0.34765625,1.265625,0.45703125,1464007588,2
0.447265625,1.35546875,-0.119140625,1464007588,2
-0.54296875,1.37109375,4.078125,1464007588,2
-0.546875,2.8828125,3.248046875,1464007588,2
0.0,4.33984375,0.826171875,1464007588,2
0.185546875,1.125,0.328125,1514006878,3
0.267578125,1.119140625,0.423828125,1514006878,3
0.27734375,0.861328125,-0.888671875,1514006878,3
0.44921875,1.181640625,-0.337890625,1514006878,3
0.37890625,1.2890625,-0.12890625,1514006878,3
0.3046875,1.357421875,-0.009765625,1514006878,3
0.224609375,1.390625,0.255859375,1514006878,3
0.22265625,1.1640625,-0.03515625,1514006878,3
0.267578125,1.197265625,-0.001953125,1514006878,3
0.23828125,1.24609375,-0.025390625,1514006878,3
0.328125,1.263671875,-0.08984375,1514006878,3
0.37890625,1.29296875,-0.068359375,1514006878,3
0.435546875,1.3203125,-0.046875,1514006878,3
0.40234375,1.3671875,0.142578125,1514006878,3
0.505859375,1.341796875,0.337890625,1514006878,3
0.51953125,1.3671875,0.390625,1514006878,3
0.375,1.42578125,-0.8828125,1514006878,3
0.384765625,1.455078125,-0.91015625,1514006878,3
0.22265625,1.1640625,0.029296875,1514006878,3
0.267578125,1.1953125,0.076171875,1514006878,3
0.27734375,1.234375,0.091796875,1514006878,3
0.287109375,1.275390625,0.068359375,1514006878,3
0.37890625,1.294921875,0.052734375,1514006878,3
0.390625,1.333984375,0.044921875,1514006878,3
0.419921875,1.337890625,-0.921875,1514006878,3
0.375,1.455078125,-0.83203125,1514006878,3
0.384765625,1.474609375,-0.876953125,1514006878,3
0.07421875,1.171875,-0.1640625,1514006878,3
0.267578125,1.1640625,0.27734375,1514006878,3
0.27734375,1.212890625,0.24609375,1514006878,3
0.287109375,1.255859375,0.234375,1514006878,3
0.25390625,1.3125,0.1953125,1514006878,3
0.26171875,1.357421875,0.162109375,1514006878,3
0.267578125,1.3828125,0.251953125,1514006878,3
0.4296875,1.478515625,-0.763671875,1514006878,3
0.072265625,1.142578125,-0.03125,1514006878,3
0.111328125,1.181640625,0.013671875,1514006878,3
0.19140625,1.2109375,0.064453125,1514006878,3
0.23828125,1.23828125,0.142578125,1514006878,3
0.24609375,1.251953125,0.296875,1514006878,3
0.2109375,1.275390625,0.390625,1514006878,3
0.26171875,1.33203125,0.306640625,1514006878,3
0.357421875,1.373046875,0.185546875,1514006878,3
0.072265625,1.142578125,0.021484375,1514006878,3
0.111328125,1.181640625,0.029296875,1514006878,3
0.115234375,1.220703125,0.029296875,1514006878,3
0.158203125,1.2578125,0.01953125,1514006878,3
0.1640625,1.298828125,0.0,1514006878,3
0.16796875,1.337890625,0.064453125,1514006878,3
0.173828125,1.32421875,0.390625,1514006878,3
0.3125,1.359375,0.318359375,1514006878,3
0.07421875,1.18359375,0.05078125,1514006878,3
0.115234375,1.220703125,0.0703125,1514006878,3
0.158203125,1.251953125,0.119140625,1514006878,3
0.205078125,1.2890625,0.09765625,1514006878,3
0.2109375,1.330078125,0.09765625,1514006878,3
0.478515625,1.189453125,-0.5390625,1514006878,3
0.4921875,1.212890625,-0.580078125,1514006878,3
0.421875,1.220703125,-0.392578125,1514006878,3
0.478515625,1.2421875,-0.40234375,1514006878,3
0.4921875,1.26953125,-0.4453125,1514006878,3
0.46484375,1.23828125,-0.267578125,1514006878,3
0.478515625,1.28125,-0.25390625,1514006878,3
0.447265625,1.326171875,-0.302734375,1514006878,3
0.0,1.177734375,-0.13671875,1563931031,4
0.345703125,1.15625,0.2265625,1563931031,4
0.197265625,1.234375,0.21875,1563931031,4
0.1640625,1.291015625,0.138671875,1563931031,4
0.126953125,1.33203125,0.17578125,1563931031,4
0.130859375,1.26171875,0.572265625,1563931031,4
0.134765625,1.283203125,0.619140625,1563931031,4
0.208984375,1.326171875,-1.005859375,1563931031,4
0.322265625,1.388671875,-0.958984375,1563931031,4
0.384765625,1.376953125,-1.0234375,1563931031,4
0.296875,1.103515625,0.3203125,1563931031,4
0.23046875,1.17578125,0.267578125,1563931031,4
0.158203125,1.2265625,0.283203125,1563931031,4
0.08203125,1.3046875,0.08203125,1563931031,4
0.505859375,1.236328125,-0.189453125,1563931031,4
0.478515625,1.177734375,-0.564453125,1563931031,4
0.08984375,1.251953125,0.689453125,1563931031,4
0.138671875,1.34765625,0.578125,1563931031,4
0.314453125,1.154296875,-1.17578125,1563931031,4
0.375,1.275390625,-1.08984375,1563931031,4
0.384765625,1.35546875,-1.052734375,1563931031,4
0.259765625,1.07421875,0.431640625,1563931031,4
0.19140625,1.130859375,0.435546875,1563931031,4
0.080078125,1.197265625,0.41015625,1563931031,4
0.490234375,1.2109375,0.078125,1563931031,4
0.46484375,1.267578125,0.00390625,1563931031,4
0.435546875,1.310546875,-0.166015625,1563931031,4
0.4921875,1.26953125,-0.44140625,1563931031,4
0.046875,1.30078125,0.689453125,1563931031,4
0.51171875,1.341796875,-0.783203125,1563931031,4
0.47265625,1.341796875,-0.888671875,1563931031,4
0.322265625,1.2109375,-1.17578125,1563931031,4
0.330078125,1.388671875,-1.029296875,1563931031,4
0.396484375,1.19140625,0.173828125,1563931031,4
0.408203125,1.232421875,0.166015625,1563931031,4
0.421875,1.275390625,0.130859375,1563931031,4
0.435546875,1.318359375,0.07421875,1563931031,4
0.447265625,1.359375,-0.052734375,1563931031,4
0.4609375,1.38671875,-0.736328125,1563931031,4
0.5234375,1.4296875,-0.703125,1563931031,4
0.126953125,1.34375,-0.046875,1563931031,4
0.130859375,1.3828125,-0.0859375,1563931031,4
0.998046875,2.6796875,-0.51171875,1563931031,4
0.07421875,1.181640625,-0.07421875,1563931031,4
0.154296875,1.212890625,-0.10546875,1563931031,4
0.119140625,1.25390625,-0.140625,1563931031,4
0.1640625,1.2890625,-0.166015625,1563931031,4
0.16796875,1.326171875,-0.185546875,1563931031,4
0.07421875,1.18359375,-0.01953125,1563931031,4
0.115234375,1.220703125,-0.02734375,1563931031,4
0.119140625,1.26171875,-0.05078125,1563931031,4
0.123046875,1.30078125,-0.07421875,1563931031,4
0.083984375,1.33984375,-0.146484375,1563931031,4
0.07421875,1.18359375,-0.021484375,1563931031,4
0.076171875,1.224609375,-0.01171875,1563931031,4
0.080078125,1.265625,0.033203125,1563931031,4
0.08203125,1.306640625,0.0390625,1563931031,4
0.04296875,1.337890625,-0.171875,1563931031,4
0.390625,1.3125,0.24609375,1563931031,4
0.47265625,1.375,0.41796875,1563931031,4
-0.076171875,0.98828125,-0.724609375,1563931031,4
-0.337890625,0.55859375,-1.181640625,1563931031,4
0.521484375,0.890625,-0.93359375,1563931031,4
0.53125,1.125,-0.40625,1563931031,4
0.037109375,1.177734375,0.140625,1614004065,5
0.0390625,1.220703125,-0.109375,1614004065,5
0.357421875,1.17578125,0.310546875,1614004065,5
0.328125,1.232421875,0.298828125,1614004065,5
0.294921875,1.27734375,0.3203125,1614004065,5
0.26171875,1.330078125,0.3125,1614004065,5
0.3125,1.359375,0.32421875,1614004065,5
0.576171875,1.30078125,-0.888671875,1614004065,5
0.482421875,1.40234375,-0.8671875,1614004065,5
0.439453125,1.49609375,-0.814453125,1614004065,5
0.345703125,1.142578125,0.283203125,1614004065,5
0.357421875,1.166015625,0.349609375,1614004065,5
0.53125,0.189453125,-1.181640625,1614004065,5
0.46484375,1.263671875,-0.103515625,1614004065,5
0.390625,1.326171875,0.15234375,1614004065,5
0.357421875,1.34375,0.341796875,1614004065,5
0.4140625,1.326171875,0.486328125,1614004065,5
0.576171875,1.361328125,-0.79296875,1614004065,5
0.58984375,1.40234375,-0.796875,1614004065,5
0.306640625,1.138671875,0.33984375,1614004065,5
0.357421875,1.154296875,0.38671875,1614004065,5
0.408203125,0.873046875,0.884765625,1614004065,5
0.421875,1.283203125,-0.001953125,1614004065,5
0.390625,1.3125,0.240234375,1614004065,5
0.40234375,1.302734375,0.43359375,1614004065,5
0.4140625,1.29296875,0.568359375,1614004065,5
0.42578125,1.298828125,0.650390625,1614004065,5
0.576171875,1.4375,-0.64453125,1614004065,5
0.58984375,1.4609375,-0.685546875,1614004065,5
0.306640625,1.12109375,0.392578125,1614004065,5
0.31640625,1.162109375,0.396484375,1614004065,5
0.3671875,1.19921875,0.375,1614004065,5
0.294921875,1.298828125,0.21875,1614004065,5
0.087890625,1.314453125,0.4453125,1614004065,5
0.3671875,1.24609375,0.69140625,1614004065,5
0.5234375,1.45703125,-0.64453125,1614004065,5
0.521484375,1.2578125,-0.28515625,1614004065,5
0.537109375,1.26953125,-0.390625,1614004065,5
0.4921875,1.27734375,-0.419921875,1614004065,5
0.107421875,1.1328125,-0.123046875,1614004065,5
0.111328125,1.17578125,-0.115234375,1614004065,5
0.115234375,1.212890625,-0.142578125,1614004065,5
0.119140625,1.251953125,-0.16015625,1614004065,5
0.1640625,1.294921875,-0.09375,1614004065,5
0.107421875,1.140625,-0.033203125,1614004065,5
0.07421875,1.181640625,-0.05859375,1614004065,5
0.115234375,1.21875,-0.0859375,1614004065,5
0.119140625,1.25390625,-0.1484375,1614004065,5
0.205078125,1.28125,-0.166015625,1614004065,5
0.25390625,1.322265625,-0.107421875,1614004065,5
0.26171875,1.365234375,-0.037109375,1614004065,5
0.107421875,1.140625,0.03515625,1614004065,5
0.07421875,1.18359375,0.015625,1614004065,5
0.115234375,1.22265625,-0.0078125,1614004065,5
0.197265625,1.251953125,-0.03515625,1614004065,5
0.328125,1.265625,-0.076171875,1614004065,5
0.421875,1.275390625,-0.130859375,1614004065,5
0.435546875,1.314453125,-0.1328125,1614004065,5
0.40234375,1.369140625,-0.1171875,1614004065,5
0.439453125,1.37109375,-1.009765625,1614004065,5
0.07421875,1.18359375,0.046875,1614004065,5
0.154296875,1.216796875,0.05078125,1614004065,5
0.31640625,1.220703125,0.126953125,1614004065,5
0.3671875,1.25390625,0.0703125,1614004065,5
0.1484375,1.169921875,-0.12109375,1664008605,6
0.23046875,1.203125,0.083984375,1664008605,6
0.23828125,1.23828125,0.138671875,1664008605,6
0.24609375,1.271484375,0.1875,1664008605,6
0.2109375,1.2890625,0.34375,1664008605,6
0.3046875,1.322265625,0.30859375,1664008605,6
0.224609375,1.361328125,0.384765625,1664008605,6
0.18359375,1.412109375,0.376953125,1664008605,6
0.111328125,1.17578125,-0.103515625,1664008605,6
0.23046875,1.177734375,0.255859375,1664008605,6
0.27734375,1.21484375,0.236328125,1664008605,6
0.287109375,1.255859375,0.228515625,1664008605,6
0.337890625,1.29296875,0.197265625,1664008605,6
0.087890625,1.310546875,0.45703125,1664008605,6
0.1796875,1.32421875,0.515625,1664008605,6
0.138671875,1.373046875,0.51171875,1664008605,6
0.111328125,1.181640625,-0.015625,1664008605,6
0.115234375,1.220703125,-0.021484375,1664008605,6
0.197265625,1.224609375,0.259765625,1664008605,6
0.287109375,1.21875,0.380859375,1664008605,6
0.337890625,1.259765625,0.34765625,1664008605,6
0.173828125,1.2890625,0.494140625,1664008605,6
0.1796875,1.287109375,0.599609375,1664008605,6
0.138671875,1.283203125,0.708984375,1664008605,6
0.568359375,1.3359375,0.431640625,1664008605,6
0.107421875,1.140625,0.0390625,1664008605,6
0.111328125,1.181640625,0.00390625,1664008605,6
0.154296875,1.216796875,0.009765625,1664008605,6
0.197265625,1.251953125,0.03515625,1664008605,6
0.24609375,1.283203125,0.087890625,1664008605,6
0.337890625,1.287109375,0.2265625,1664008605,6
0.51953125,1.275390625,0.62890625,1664008605,6
0.53515625,1.291015625,0.681640625,1664008605,6
0.1484375,1.17578125,0.068359375,1664008605,6
0.19140625,1.2109375,0.03515625,1664008605,6
0.197265625,1.251953125,0.037109375,1664008605,6
0.24609375,1.283203125,0.087890625,1664008605,6
0.294921875,1.306640625,0.171875,1664008605,6
0.1484375,1.171875,0.103515625,1664008605,6
0.154296875,1.21484375,0.078125,1664008605,6
0.158203125,1.2578125,0.056640625,1664008605,6
0.205078125,1.2890625,0.09765625,1664008605,6
0.2109375,1.33203125,-0.04296875,1664008605,6
0.24609375,1.28515625,-0.01171875,1664008605,6
0.2109375,1.333984375,0.0078125,1664008605,6
0.173828125,1.37890625,0.025390625,1664008605,6
0.31640625,1.2265625,-0.02734375,1664008605,6
0.287109375,1.27734375,-0.02734375,1664008605,6
0.2109375,1.333984375,-0.025390625,1664008605,6
0.173828125,1.380859375,0.001953125,1664008605,6
0.345703125,1.17578125,0.05859375,1664008605,6
0.357421875,1.21484375,0.07421875,1664008605,6
0.328125,1.265625,0.056640625,1664008605,6
0.294921875,1.31640625,0.001953125,1664008605,6
0.3046875,1.353515625,-0.087890625,1664008605,6
0.306640625,1.1875,0.0234375,1664008605,6
0.31640625,1.228515625,-0.001953125,1664008605,6
0.328125,1.265625,-0.078125,1664008605,6
0.46484375,1.26171875,-0.130859375,1664008605,6
0.478515625,1.279296875,-0.263671875,1664008605,6
0.267578125,1.197265625,0.009765625,1664008605,6
0.27734375,1.236328125,-0.017578125,1664008605,6
0.408203125,1.2421875,0.033203125,1664008605,6
0.421875,1.28125,-0.02734375,1664008605,6
