0.337890625,0.138671875,-1.76171875,3273865921,210
0.345703125,0.70703125,-1.6640625,3273865921,210
0.12109375,1.91015625,0.189453125,3273865921,210
0.306640625,1.93359375,0.15625,3273865921,210
0.375,1.8984375,0.5234375,3273865921,210
0.3203125,1.96875,0.45703125,3273865921,210
0.064453125,2.01171875,0.548828125,3273865921,210
0.73046875,1.900390625,0.6171875,3273865921,210
0.677734375,1.95703125,0.640625,3273865921,210
0.62109375,2.017578125,0.65234375,3273865921,210
0.275390625,0.7265625,-1.578125,3273865921,210
0.28125,0.669921875,-1.646484375,3273865921,210
0.287109375,0.52734375,-1.740234375,3273865921,210
0.234375,0.822265625,1.67578125,3273865921,210
0.361328125,1.603515625,0.998046875,3273865921,210
0.3671875,1.84375,0.56640625,3273865921,210
0.326171875,1.62109375,1.2734375,3273865921,210
0.220703125,0.92578125,-1.478515625,3273865921,210
0.28125,0.884765625,-1.54296875,3273865921,210
0.287109375,0.806640625,-1.62890625,3273865921,210
0.294921875,0.5390625,-1.779296875,3273865921,210
0.361328125,0.53125,1.8125,3273865921,210
1.3671875,2.001953125,3.005859375,3273865921,210
-31.998046875,0.001953125,33.5,3273865921,210
15.0,10.583984375,16.39453125,3273865921,210
0.5,0.0,-62.0,3273865921,210
22.5,0.0,18.5,3273865921,210
23.0,0.0,23.0,3273865921,210
23.5,0.0,51.0,3273865921,210
24.0,0.0,-39.0,3273865921,210
24.501953125,0.0,-55.0,3273865921,210
25.001953125,0.0,30.5,3273865921,210
22.501953125,0.5,15.0,3273865921,210
23.0,0.5,16.0,3273865921,210
23.5,0.5,24.5,3273865921,210
24.0,0.5,34.0,3273865921,210
24.5,0.5,24.5,3273865921,210
24.0,1.0,12.0,3273865921,210
23.5,-1.5,15.998046875,3273865921,210
24.0,-1.5,36.998046875,3273865921,210
24.5,-1.5,47.498046875,3273865921,210
25.0,-1.5,35.498046875,3273865921,210
22.5,-1.0,18.498046875,3273865921,210
23.498046875,-1.0,25.998046875,3273865921,210
23.998046875,-1.0,-54.001953125,3273865921,210
24.0,-1.0,13.498046875,3273865921,210
24.5,-1.0,7.998046875,3273865921,210
25.0,-1.0,61.998046875,3273865921,210
22.001953125,-0.5,16.498046875,3273865921,210
22.998046875,-0.5,47.498046875,3273865921,210
23.0,-0.5,51.998046875,3273865921,210
23.998046875,-0.5,-23.501953125,3273865921,210
24.0,-0.5,55.498046875,3273865921,210
24.5,-0.5,28.998046875,3273865921,210
25.001953125,-0.5,56.498046875,3273865921,210
25.001953125,0.0,16.0,3273865921,210
23.494140625,-1.0,14.498046875,3273865921,210
25.005859375,-0.5,32.498046875,3273865921,210
6.494140625,0.0,16.0,3273865921,210
3.5,0.0,1.0,3273865921,210
2.513671875,1.0,-63.998046875,3273865921,210
1.0,0.0,-61.5,3273865921,210
0.5,0.0,0.5,3273865921,210
13.0,4.5,23.0,3273865921,210
0.23046875,1.826171875,-0.017578125,3490362020,3
0.17578125,1.873046875,0.021484375,3490362020,3
0.1796875,1.9140625,0.0546875,3490362020,3
0.24609375,1.9375,0.197265625,3490362020,3
0.3125,1.955078125,0.310546875,3490362020,3
0.255859375,1.9921875,0.388671875,3490362020,3
0.16796875,1.791015625,0.0390625,3490362020,3
0.171875,1.830078125,0.11328125,3490362020,3
0.17578125,1.869140625,0.140625,3490362020,3
0.1796875,1.90625,0.171875,3490362020,3
0.24609375,1.927734375,0.279296875,3490362020,3
0.3125,1.955078125,0.306640625,3490362020,3
0.255859375,1.990234375,0.400390625,3490362020,3
0.171875,1.818359375,0.228515625,3490362020,3
0.1171875,1.861328125,0.25390625,3490362020,3
0.1796875,1.892578125,0.287109375,3490362020,3
0.18359375,1.90625,0.4296875,3490362020,3
0.3125,1.916015625,0.5,3490362020,3
0.255859375,1.939453125,0.595703125,3490362020,3
0.171875,1.81640625,-0.240234375,3490362020,3
0.234375,1.853515625,-0.21875,3490362020,3
0.240234375,1.8984375,-0.185546875,3490362020,3
0.171875,1.830078125,-0.103515625,3490362020,3
0.234375,1.865234375,-0.09375,3490362020,3
0.1796875,1.9140625,-0.064453125,3490362020,3
0.4296875,1.90625,-0.19921875,3490362020,3
0.375,1.943359375,-0.3203125,3490362020,3
0.3828125,1.953125,-0.47265625,3490362020,3
0.234375,1.86328125,0.125,3540366111,4
0.30078125,1.8984375,-0.009765625,3540366111,4
-0.123046875,1.556640625,1.19140625,3540366111,4
0.125,1.912109375,0.5859375,3540366111,4
0.255859375,1.939453125,0.595703125,3540366111,4
0.26171875,1.974609375,0.623046875,3540366111,4
0.171875,1.8203125,0.21484375,3540366111,4
0.234375,1.85546875,0.20703125,3540366111,4
0.240234375,1.90234375,0.126953125,3540366111,4
0.3671875,1.923828125,-0.140625,3540366111,4
0.0625,1.8125,0.853515625,3540366111,4
0.19140625,1.896484375,0.740234375,3540366111,4
0.26171875,1.90625,0.80859375,3540366111,4
0.17578125,1.849609375,0.30078125,3540366111,4
0.240234375,1.896484375,0.19921875,3540366111,4
0.490234375,1.888671875,-0.220703125,3540366111,4
0.0,1.82421875,0.830078125,3540366111,4
0.19140625,1.845703125,0.861328125,3540366111,4
0.26171875,1.849609375,0.927734375,3540366111,4
0.17578125,1.8671875,-0.1484375,3540366111,4
0.240234375,1.896484375,-0.197265625,3540366111,4
0.3671875,1.91015625,-0.271484375,3540366111,4
0.375,1.916015625,-0.455078125,3540366111,4
0.23046875,1.826171875,-0.029296875,3540366111,4
0.234375,1.8671875,-0.048828125,3540366111,4
0.240234375,1.90625,-0.080078125,3540366111,4
0.306640625,1.93359375,-0.138671875,3540366111,4
0.375,1.953125,-0.25,3540366111,4
0.552734375,1.7890625,-0.58984375,3540366111,4
-0.18359375,0.91796875,1.7265625,3540366111,4
0.171875,1.83203125,0.037109375,3590467596,5
0.234375,1.865234375,0.05859375,3590467596,5
0.240234375,1.908203125,0.0,3590467596,5
0.3671875,1.927734375,-0.05859375,3590467596,5
0.375,1.96875,0.052734375,3590467596,5
0.3203125,1.994140625,0.326171875,3590467596,5
0.26171875,2.033203125,0.3828125,3590467596,5
0.171875,1.826171875,0.1640625,3590467596,5
0.17578125,1.8671875,0.15625,3590467596,5
0.240234375,1.904296875,0.12109375,3590467596,5
0.3671875,1.927734375,0.064453125,3590467596,5
0.375,1.96484375,0.12890625,3590467596,5
0.3203125,1.984375,0.37890625,3590467596,5
0.26171875,2.021484375,0.44921875,3590467596,5
0.171875,1.80859375,0.294921875,3590467596,5
0.17578125,1.8515625,0.279296875,3590467596,5
0.240234375,1.892578125,0.2421875,3590467596,5
0.3671875,1.919921875,0.181640625,3590467596,5
0.3125,1.953125,0.330078125,3590467596,5
0.255859375,1.93359375,0.6171875,3590467596,5
0.26171875,1.95703125,0.671875,3590467596,5
0.240234375,1.865234375,0.3984375,3590467596,5
0.306640625,1.91015625,0.33203125,3590467596,5
0.17578125,1.853515625,-0.271484375,3590467596,5
0.30078125,1.8828125,-0.248046875,3590467596,5
0.3671875,1.908203125,-0.283203125,3590467596,5
0.4375,1.92578125,-0.337890625,3590467596,5
0.171875,1.830078125,-0.083984375,3590467596,5
0.234375,1.865234375,-0.091796875,3590467596,5
0.30078125,1.89453125,-0.1171875,3590467596,5
0.3671875,1.919921875,-0.1796875,3590467596,5
0.375,1.94921875,-0.271484375,3590467596,5
0.447265625,1.955078125,-0.404296875,3590467596,5
-0.3125,0.98046875,1.720703125,3590467596,5
-0.255859375,1.177734375,1.65234375,3590467596,5
0.115234375,1.837890625,-0.025390625,3640324545,6
0.0,1.859375,-0.283203125,3640324545,6
0.30078125,1.888671875,0.1953125,3640324545,6
0.306640625,1.9375,0.10546875,3640324545,6
0.3125,1.9765625,0.12109375,3640324545,6
0.255859375,2.0078125,0.287109375,3640324545,6
0.26171875,1.953125,0.685546875,3640324545,6
0.115234375,1.833984375,0.11328125,3640324545,6
0.0,1.87890625,-0.091796875,3640324545,6
0.30078125,1.869140625,0.33203125,3640324545,6
0.24609375,1.935546875,0.216796875,3640324545,6
0.25,1.9765625,0.21484375,3640324545,6
0.255859375,1.994140625,0.380859375,3640324545,6
0.26171875,1.90234375,0.814453125,3640324545,6
0.0,1.880859375,0.021484375,3640324545,6
0.30078125,1.84765625,0.439453125,3640324545,6
0.24609375,1.9140625,0.365234375,3640324545,6
0.25,1.951171875,0.38671875,3640324545,6
0.255859375,1.943359375,0.5859375,3640324545,6
0.1953125,1.83984375,0.96484375,3640324545,6
0.306640625,1.923828125,-0.244140625,3640324545,6
0.375,1.951171875,-0.26171875,3640324545,6
0.1171875,1.8671875,-0.1953125,3640324545,6
0.3671875,1.923828125,-0.140625,3640324545,6
0.375,1.95703125,-0.224609375,3640324545,6
0.3203125,1.978515625,-0.40625,3640324545,6
-0.521484375,1.419921875,-1.4375,3640324545,6
0.326171875,1.70703125,1.15234375,3640324545,6
