0.0,2.984375,0.71484375,306055183,259
0.09765625,3.01171875,0.76171875,306055183,259
0.09765625,3.025390625,0.869140625,306055183,259
0.0,3.08203125,0.826171875,306055183,259
0.201171875,3.220703125,0.17578125,306055183,259
0.205078125,3.265625,0.029296875,306055183,259
-0.1328125,4.251953125,-0.017578125,306055183,259
-0.134765625,4.29296875,0.009765625,306055183,259
-0.134765625,4.333984375,0.0390625,306055183,259
0.0,4.376953125,-0.005859375,306055183,259
0.0,2.970703125,-0.765625,306055183,259
0.09765625,3.1015625,-0.197265625,306055183,259
0.09765625,3.021484375,0.880859375,306055183,259
-0.1328125,4.251953125,0.0703125,306055183,259
-0.134765625,4.29296875,0.0546875,306055183,259
-0.134765625,4.333984375,-0.01171875,306055183,259
-0.13671875,4.373046875,-0.111328125,306055183,259
0.0,4.416015625,-0.134765625,306055183,259
0.0,3.01953125,-0.544921875,306055183,259
0.09765625,3.078125,-0.4296875,306055183,259
0.197265625,3.134765625,0.23828125,306055183,259
0.3984375,2.673828125,1.6953125,306055183,259
1.404296875,2.001953125,3.005859375,306055183,259
16.001953125,0.001953125,33.5,306055183,259
12.0,54.4921875,9.177734375,306055183,259
0.5,0.0,-18.0,306055183,259
31.0,0.0,11.0,306055183,259
31.5,0.0,16.5,306055183,259
32.0,0.0,14.5,306055183,259
30.5,0.5,17.5,306055183,259
31.0,0.5,28.0,306055183,259
31.501953125,0.5,34.5,306055183,259
32.001953125,0.5,35.5,306055183,259
32.501953125,0.5,26.5,306055183,259
31.001953125,-1.0,15.998046875,306055183,259
31.5,-1.0,21.998046875,306055183,259
32.0,-1.0,20.498046875,306055183,259
32.5,-1.0,14.498046875,306055183,259
30.5,-0.5,22.498046875,306055183,259
31.0,-0.5,44.498046875,306055183,259
31.5,-0.5,61.998046875,306055183,259
32.0,-0.5,58.998046875,306055183,259
32.5,-0.5,41.498046875,306055183,259
33.0,-0.5,18.498046875,306055183,259
6.0,0.0,40.0,306055183,259
3.5,0.0,24.0,306055183,259
1.0,2.001953125,3.005859375,306055183,259
-47.998046875,0.0,33.5,306055183,259
44.5,50.306640625,3.68359375,306055183,259
0.5,0.0,44.0,306055183,259
31.0,0.5,19.0,306055183,259
31.5,0.5,24.5,306055183,259
32.0,0.5,17.5,306055183,259
31.0,-0.5,14.998046875,306055183,259
31.5,-0.5,23.498046875,306055183,259
32.0,-0.5,27.498046875,306055183,259
32.5,-0.5,20.498046875,306055183,259
6.0,0.0,16.0,306055183,259
3.5,0.0,24.0,306055183,259
31.5,6.001953125,1.0625,306055183,259
2.513671875,1.0,16.001953125,306055183,259
1.5,0.0,-55.0,306055183,259
0.5,0.0,0.5,306055183,259
20.5,4.5,31.0,306055183,259
0.23046875,2.419921875,0.333984375,1684775190,4
0.3125,2.462890625,0.251953125,1684775190,4
0.396484375,2.4765625,0.380859375,1684775190,4
0.322265625,2.462890625,0.685546875,1684775190,4
0.408203125,2.2578125,1.26171875,1684775190,4
0.416015625,2.42578125,1.005859375,1684775190,4
0.0,4.31640625,0.939453125,1684775190,4
-0.279296875,4.419921875,0.515625,1684775190,4
0.234375,2.46484375,0.318359375,1684775190,4
0.23828125,2.509765625,0.26953125,1684775190,4
0.322265625,2.55078125,0.181640625,1684775190,4
0.328125,2.58203125,0.275390625,1684775190,4
0.271484375,4.32421875,-0.171875,1684775190,4
-0.275390625,4.361328125,0.64453125,1684775190,4
-0.279296875,4.39453125,0.701171875,1684775190,4
0.23828125,2.474609375,0.50390625,1684775190,4
0.2421875,2.46484375,0.708984375,1684775190,4
0.1640625,1.923828125,1.76953125,1684775190,4
0.0,0.478515625,2.615234375,1684775190,4
0.0,4.224609375,0.779296875,1684775190,4
0.134765625,4.30078125,0.52734375,1684775190,4
0.0,4.357421875,0.40625,1684775190,4
-0.138671875,4.392578125,0.4609375,1684775190,4
-0.138671875,4.42578125,0.5234375,1684775190,4
-0.900390625,2.21484375,1.068359375,1684775190,4
0.083984375,2.49609375,-0.912109375,1684775190,4
0.67578125,2.4921875,0.787109375,1684775190,4
-0.41015625,4.19140625,1.193359375,1684775190,4
-0.138671875,4.349609375,0.755859375,1684775190,4
-0.138671875,4.416015625,0.595703125,1684775190,4
0.328125,2.59375,0.154296875,1684775190,4
0.416015625,2.603515625,0.345703125,1684775190,4
0.505859375,2.59765625,0.529296875,1684775190,4
0.599609375,2.578125,0.708984375,1684775190,4
-0.1328125,4.2421875,0.30078125,1684775190,4
-0.134765625,4.27734375,0.359375,1684775190,4
-0.134765625,4.30859375,0.46875,1684775190,4
-0.13671875,4.333984375,0.591796875,1684775190,4
-0.138671875,4.365234375,0.66796875,1684775190,4
-0.279296875,4.419921875,0.5234375,1684775190,4
0.24609375,2.58203125,-0.357421875,1684775190,4
0.498046875,2.580078125,0.404296875,1684775190,4
0.58984375,2.55859375,0.625,1684775190,4
0.513671875,2.59765625,0.705078125,1684775190,4
-0.267578125,4.234375,0.6640625,1684775190,4
-0.134765625,4.287109375,0.62890625,1684775190,4
-0.2734375,4.267578125,0.935546875,1684775190,4
-0.275390625,4.330078125,0.830078125,1684775190,4
-0.279296875,4.392578125,0.708984375,1684775190,4
0.58984375,2.59375,-0.45703125,1684775190,4
0.0859375,1.869140625,-2.001953125,1684775190,4
-0.267578125,4.24609375,0.58984375,1684775190,4
-0.271484375,4.3046875,0.443359375,1684775190,4
-0.4140625,4.349609375,0.646484375,1684775190,4
-0.279296875,4.4296875,0.423828125,1684775190,4
0.24609375,2.60546875,-0.052734375,1684775190,4
0.498046875,2.57421875,0.4453125,1684775190,4
0.58984375,2.57421875,0.556640625,1684775190,4
0.599609375,2.59765625,0.6328125,1684775190,4
-0.267578125,4.26171875,0.458984375,1684775190,4
-0.271484375,4.296875,0.521484375,1684775190,4
-0.4140625,4.333984375,0.74609375,1684775190,4
-0.279296875,4.412109375,0.578125,1684775190,4
-0.564453125,2.328125,0.951171875,1684775190,4
0.4609375,2.408203125,0.10546875,1734186831,5
0.46875,2.451171875,0.03515625,1734186831,5
0.474609375,2.490234375,-0.07421875,1734186831,5
0.482421875,2.51953125,-0.2421875,1734186831,5
0.408203125,2.5859375,0.005859375,1734186831,5
0.25,2.501953125,0.8671875,1734186831,5
-0.134765625,4.3046875,0.498046875,1734186831,5
0.376953125,2.376953125,0.17578125,1734186831,5
0.3828125,2.412109375,0.240234375,1734186831,5
0.390625,2.455078125,0.208984375,1734186831,5
0.396484375,2.501953125,0.111328125,1734186831,5
0.40234375,2.544921875,-0.0390625,1734186831,5
0.572265625,2.5546875,-0.01171875,1734186831,5
-0.134765625,4.275390625,0.708984375,1734186831,5
0.0,4.330078125,0.634765625,1734186831,5
0.3828125,2.388671875,0.41796875,1734186831,5
0.390625,2.4375,0.361328125,1734186831,5
0.396484375,2.4921875,0.2578125,1734186831,5
0.482421875,2.529296875,0.115234375,1734186831,5
0.490234375,2.56640625,0.171875,1734186831,5
0.1640625,2.5703125,0.474609375,1734186831,5
0.083984375,2.62890625,0.390625,1734186831,5
0.0,2.650390625,0.51171875,1734186831,5
-0.171875,2.2109375,1.611328125,1734186831,5
0.783203125,2.642578125,0.3828125,1734186831,5
0.3828125,2.421875,-0.111328125,1734186831,5
0.390625,2.462890625,-0.09765625,1734186831,5
0.396484375,2.501953125,-0.12109375,1734186831,5
0.322265625,2.541015625,0.287109375,1734186831,5
0.24609375,2.513671875,0.689453125,1734186831,5
0.25,2.55859375,0.677734375,1734186831,5
0.0,2.6796875,0.330078125,1734186831,5
-0.171875,1.673828125,2.162109375,1734186831,5
0.783203125,2.595703125,0.625,1734186831,5
-0.572265625,1.986328125,-1.607421875,1734186831,5
-0.736328125,1.880859375,-1.666015625,1734186831,5
0.857421875,2.58984375,0.2734375,1734186831,5
-0.26171875,0.755859375,2.6640625,1734186831,5
-0.736328125,1.931640625,-1.607421875,1734186831,5
-0.748046875,2.099609375,-1.44921875,1734186831,5
0.857421875,2.53515625,0.595703125,1734186831,5
-0.26171875,0.544921875,-2.71484375,1734186831,5
0.2421875,2.541015625,0.35546875,1783791249,6
0.24609375,2.564453125,0.466796875,1783791249,6
0.25,2.625,0.345703125,1783791249,6
-0.337890625,2.41796875,1.15234375,1783791249,6
0.31640625,2.51171875,0.16015625,1783791249,6
0.40234375,2.521484375,0.34765625,1783791249,6
-0.416015625,2.560546875,0.5859375,1783791249,6
0.0,2.587890625,0.40234375,1783791249,6
0.0,2.625,0.423828125,1783791249,6
0.0,2.677734375,0.34765625,1783791249,6
0.080078125,2.529296875,0.484375,1783791249,6
0.1640625,2.578125,0.421875,1783791249,6
0.083984375,2.625,0.416015625,1783791249,6
0.083984375,2.681640625,0.29296875,1783791249,6
-0.654296875,0.818359375,2.3984375,1783791249,6
