0.173828125,2.248046875,-1.62890625,3690065956,253
0.17578125,2.220703125,-1.734375,3690065956,253
0.1796875,2.283203125,-1.71875,3690065956,253
-0.283203125,3.005859375,0.220703125,3690065956,253
-0.3828125,3.0390625,-0.154296875,3690065956,253
-0.388671875,3.068359375,-0.310546875,3690065956,253
-0.294921875,3.123046875,-0.28125,3690065956,253
-0.298828125,3.11328125,-0.62890625,3690065956,253
-0.546875,4.330078125,0.330078125,3690065956,253
-0.275390625,2.853515625,0.67578125,3690065956,253
-0.373046875,2.900390625,0.6015625,3690065956,253
-0.37890625,2.947265625,1.080078125,3690065956,253
2.513671875,1.0,-47.998046875,3690065956,253
0.5,0.0,-7.0,3690065956,253
0.5,0.0,0.5,3690065956,253
4.0,4.5,30.5,3690065956,253
-32.001953125,29.0078125,31.001953125,3690065956,253
-27.001953125,50.0078125,30.501953125,3690065956,253
-13.501953125,44.5078125,31.0,3690065956,253
-1.501953125,-61.9921875,31.5,3690065956,253
6.998046875,-44.990234375,32.0,3690065956,253
7.998046875,-8.490234375,32.5,3690065956,253
18.498046875,9.509765625,33.001953125,3690065956,253
29.49609375,-11.490234375,6.0,3690065956,253
-30.841796875,0.0,3.5,3690065956,253
3.005859375,4.009765625,2.513671875,3690065956,253
33.5,5.0390625,1.0,3690065956,253
1.611328125,0.0,0.5,3690065956,253
20.0,0.0,1.5,3690065956,253
12.5,-18.5,0.49609375,3690065956,253
15.0,0.5,-1.501953125,3690065956,253
16.998046875,-60.5,2.49609375,3690065956,253
40.0,1.60546875,51.658203125,3690065956,253
3.005859375,4.009765625,2.513671875,3690065956,253
33.5,5.0390625,1.5,3690065956,253
20.1171875,0.0,0.5,3690065956,253
-14.0,0.001953125,20.0,3690065956,253
20.5,49.5,-26.001953125,3690065956,253
33.0,48.0,-16.501953125,3690065956,253
27.5,26.5,-9.501953125,3690065956,253
55.0,-62.0,3.498046875,3690065956,253
-23.5,-63.0,14.498046875,3690065956,253
-44.0,43.0,22.498046875,3690065956,253
24.0,20.0,24.998046875,3690065956,253
35.5,26.5,-18.501953125,3690065956,253
-27.0,45.5,-8.001953125,3690065956,253
33.5,-62.998046875,2.998046875,3690065956,253
-12.5,43.0,9.998046875,3690065956,253
21.5,-23.0,23.49609375,3690065956,253
23.0,26.5,-26.001953125,3690065956,253
48.0,45.5,-21.001953125,3690065956,253
-61.5,44.0,-18.501953125,3690065956,253
50.0,43.0,-11.001953125,3690065956,253
21.5,-45.0,17.49609375,3690065956,253
16.5,25.0,-21.501953125,3690065956,253
33.0,23.5,12.498046875,3690065956,253
41.0,-21.0,15.99609375,3690065956,253
24.5,-45.0,16.99609375,3690065956,253
37.0,-18.5,0.99609375,3690065956,253
47.0,-21.0,11.99609375,3690065956,253
26.0,-45.0,17.49609375,3690065956,253
19.0,-18.5,1.49609375,3690065956,253
22.5,-42.0,2.99609375,3690065956,253
13.0,-45.0,9.99609375,3690065956,253
-0.4609375,2.330078125,0.62109375,1063775147,4
-0.390625,2.361328125,0.705078125,1063775147,4
-0.396484375,2.369140625,0.81640625,1063775147,4
-0.482421875,2.4453125,0.654296875,1063775147,4
-0.490234375,2.43359375,0.830078125,1063775147,4
-0.498046875,2.43359375,0.9453125,1063775147,4
-0.505859375,2.482421875,0.93359375,1063775147,4
0.138671875,4.435546875,0.4296875,1063775147,4
-0.634765625,2.416015625,0.44140625,1063775147,4
-0.64453125,2.4453125,0.5,1063775147,4
-0.654296875,2.48828125,0.48828125,1063775147,4
-1.9453125,4.337890625,0.55859375,1063775147,4
-0.634765625,2.38671875,0.57421875,1063775147,4
-0.64453125,2.421875,0.599609375,1063775147,4
-0.166015625,2.625,0.390625,1063775147,4
0.0,4.27734375,0.3828125,1063775147,4
-0.134765625,4.32421875,0.2890625,1063775147,4
-0.2734375,4.34765625,0.41796875,1063775147,4
-0.1640625,2.544921875,0.591796875,1063775147,4
-0.25,2.587890625,0.55859375,1063775147,4
-0.337890625,2.640625,0.455078125,1063775147,4
-0.513671875,2.671875,-0.3359375,1063775147,4
0.0,4.240234375,0.689453125,1063775147,4
-0.134765625,4.263671875,0.775390625,1063775147,4
-0.2734375,4.27734375,0.88671875,1063775147,4
-0.1640625,2.529296875,0.658203125,1063775147,4
-0.33203125,2.560546875,0.638671875,1063775147,4
-0.421875,2.6015625,0.583984375,1063775147,4
-0.771484375,2.373046875,1.1328125,1063775147,4
0.134765625,4.333984375,0.04296875,1063775147,4
0.13671875,4.36328125,0.314453125,1063775147,4
0.138671875,4.388671875,0.482421875,1063775147,4
0.138671875,4.435546875,0.431640625,1063775147,4
-0.748046875,2.265625,1.171875,1063775147,4
-0.759765625,2.421875,0.919921875,1063775147,4
0.0,4.25390625,0.599609375,1063775147,4
0.0,4.287109375,0.6484375,1063775147,4
0.0,4.318359375,0.712890625,1063775147,4
0.0,4.357421875,0.7265625,1063775147,4
0.138671875,4.408203125,0.658203125,1063775147,4
-0.24609375,2.5546875,0.517578125,1063775147,4
-0.498046875,2.548828125,0.56640625,1063775147,4
-0.58984375,2.525390625,0.748046875,1063775147,4
-0.685546875,2.4453125,1.03125,1063775147,4
0.0,1.6484375,-1.98046875,1063775147,4
0.08203125,1.736328125,-1.95703125,1063775147,4
-0.166015625,1.62890625,-2.09375,1063775147,4
-0.25390625,1.76171875,-2.029296875,1063775147,4
-0.341796875,1.7734375,-2.060546875,1063775147,4
0.24609375,1.927734375,-1.75390625,1063775147,4
-0.416015625,0.966796875,-2.44140625,1063775147,4
-0.421875,1.41015625,-2.263671875,1063775147,4
-0.341796875,1.54296875,-2.240234375,1063775147,4
-0.416015625,1.552734375,-2.1171875,1063775147,4
-0.421875,1.55078125,-2.16796875,1063775147,4
-0.427734375,1.572265625,-2.205078125,1063775147,4
0.322265625,1.3359375,-2.181640625,1063775147,4
0.328125,1.31640625,-2.240234375,1063775147,4
0.166015625,1.37890625,-2.267578125,1063775147,4
-0.337890625,1.681640625,-2.083984375,1063775147,4
-0.427734375,1.421875,-2.3046875,1063775147,4
0.322265625,1.666015625,-1.939453125,1063775147,4
0.328125,1.611328125,-2.037109375,1063775147,4
0.25,1.544921875,-2.1484375,1063775147,4
-0.453125,2.33984375,0.38671875,1113386642,5
-0.3828125,2.400390625,0.341796875,1113386642,5
-0.3125,2.466796875,0.216796875,1113386642,5
-0.31640625,2.513671875,0.1171875,1113386642,5
-0.2421875,2.544921875,0.3203125,1113386642,5
-0.1640625,2.46875,0.857421875,1113386642,5
0.0,2.521484375,0.841796875,1113386642,5
-0.083984375,2.53515625,0.927734375,1113386642,5
-0.8828125,2.625,0.544921875,1113386642,5
-1.07421875,2.591796875,0.572265625,1113386642,5
-0.376953125,2.314453125,0.5703125,1113386642,5
-0.3828125,2.3671875,0.51953125,1113386642,5
-0.390625,2.43359375,0.38671875,1113386642,5
-0.396484375,2.490234375,0.279296875,1113386642,5
-0.40234375,2.537109375,0.216796875,1113386642,5
-0.408203125,2.46484375,0.783203125,1113386642,5
0.166015625,2.62109375,0.41796875,1113386642,5
0.16796875,2.650390625,0.490234375,1113386642,5
-0.984375,2.587890625,0.732421875,1113386642,5
0.0,4.2265625,0.96875,1113386642,5
0.0,4.232421875,1.115234375,1113386642,5
-0.3828125,2.328125,0.673828125,1113386642,5
-0.390625,2.404296875,0.544921875,1113386642,5
-0.396484375,2.46484375,0.4453125,1113386642,5
-0.40234375,2.525390625,0.318359375,1113386642,5
-0.490234375,2.43359375,0.833984375,1113386642,5
0.166015625,2.615234375,0.44921875,1113386642,5
0.0,2.591796875,0.376953125,1113386642,5
0.0,2.623046875,0.431640625,1113386642,5
-0.083984375,2.646484375,0.529296875,1113386642,5
0.0,2.55078125,0.5859375,1113386642,5
0.0,2.59375,0.587890625,1113386642,5
0.083984375,2.619140625,0.650390625,1113386642,5
0.0,2.576171875,0.935546875,1113386642,5
-0.869140625,2.62890625,0.271484375,1113386642,5
-0.3828125,2.40234375,0.3203125,1113386642,5
-0.390625,2.4609375,0.138671875,1113386642,5
-0.396484375,2.505859375,-0.005859375,1113386642,5
0.16015625,2.4296875,0.841796875,1113386642,5
0.0,2.50390625,0.76171875,1113386642,5
0.0,2.55078125,0.751953125,1113386642,5
0.0,2.578125,0.802734375,1113386642,5
0.0,2.5078125,1.107421875,1113386642,5
-0.869140625,2.58203125,0.5625,1113386642,5
0.1640625,2.611328125,-0.11328125,1113386642,5
-0.94140625,2.515625,-0.546875,1113386642,5
-0.857421875,2.595703125,-0.212890625,1113386642,5
0.087890625,0.994140625,2.595703125,1113386642,5
0.083984375,2.595703125,0.568359375,1162827364,6
0.083984375,2.65234375,0.498046875,1162827364,6
-0.390625,2.419921875,0.46484375,1162827364,6
-0.31640625,2.458984375,0.53515625,1162827364,6
-0.416015625,2.537109375,0.677734375,1162827364,6
-0.421875,2.576171875,0.689453125,1162827364,6
-0.341796875,2.630859375,0.69140625,1162827364,6
-0.34765625,2.66015625,0.736328125,1162827364,6
-0.505859375,2.517578125,0.8359375,1162827364,6
-0.2578125,2.57421875,0.908203125,1162827364,6
-1.1796875,2.57421875,0.646484375,1162827364,6
0.33203125,2.603515625,0.423828125,1162827364,6
-0.306640625,2.4296875,0.169921875,1162827364,6
-0.390625,2.4609375,0.1484375,1162827364,6
0.25,2.572265625,0.623046875,1162827364,6
0.337890625,2.5859375,0.701171875,1162827364,6
-0.67578125,2.568359375,-0.484375,1162827364,6
